ply
format ascii 1.0
comment Created by Open3D
element vertex 1297
property double x
property double y
property double z
property uchar red
property uchar green
property uchar blue
end_header
-0.19703 0.63038 0.17229 88 57 49
-0.18312 0.63091 0.17061 161 144 139
-0.16307 0.61938 0.16629 127 106 101
0.32404 0.58253 0.43271 83 55 48
0.31721 0.57692 0.43048 205 196 193
0.32782 0.57686 0.43601 95 70 64
0.33937 0.57219 0.4434 69 40 33
0.34958 0.5722 0.45181 107 87 81
-0.44304 0.70036 0.23114 237 233 231
-0.25707 0.64428 0.18854 231 226 224
-0.23575 0.63179 0.18174 227 222 219
-0.22296 0.63217 0.17937 126 101 96
-0.20283 0.62115 0.17772 113 89 82
-0.18898 0.61954 0.1732 70 39 30
-0.17626 0.61847 0.16676 85 57 47
0.05819 0.53678 0.0845599 43 24 15
0.08089 0.52655 0.0755298 52 30 22
0.0890199 0.52031 0.0826797 67 44 36
0.3286 0.57229 0.43782 128 108 102
0.33148 0.56316 0.44511 190 178 175
0.34185 0.56326 0.45104 89 62 56
0.35567 0.57136 0.46562 183 173 169
0.59393 0.64618 0.95265 228 223 221
-0.21548 0.62064 0.17928 227 221 217
-0.19423 0.60851 0.1748 201 192 190
-0.16418 0.59602 0.16513 204 196 192
-0.09396 0.57174 0.13802 165 150 145
-0.01836 0.54532 0.10537 137 119 113
0.0421301 0.51961 0.0731099 35 14 6
0.0906299 0.50634 0.0792799 69 46 39
0.0964399 0.51323 0.0888097 207 199 195
0.34349 0.5532 0.45851 173 158 155
0.35243 0.55748 0.46327 74 44 38
0.36182 0.56027 0.46912 108 86 81
0.37216 0.5602 0.47527 226 221 219
0.36977 0.55327 0.48433 136 119 115
0.59157 0.62949 0.92972 221 212 210
0.5921 0.63564 0.94016 190 175 173
0.59082 0.63426 0.95282 106 75 72
0.58999 0.641 0.96293 211 202 201
0.0765401 0.50569 0.0741198 45 23 15
0.35695 0.55035 0.47213 78 51 45
0.36293 0.54899 0.47665 69 41 35
0.36804 0.54143 0.48387 70 43 36
0.37543 0.54548 0.49139 117 96 92
0.58609 0.63156 0.95126 109 80 76
0.0974699 0.48747 0.0793297 159 148 142
0.36538 0.52996 0.48369 201 191 188
0.36027 0.53752 0.47647 172 157 154
0.37327 0.53381 0.49106 78 52 45
0.39007 0.53837 0.49931 164 150 147
0.39016 0.53802 0.49913 159 144 142
0.39016 0.53809 0.49911 160 146 143
0.41211 0.52947 0.52021 239 236 234
0.63978 0.52011 0.68433 177 165 161
0.64596 0.5246 0.69697 152 133 130
0.65171 0.52825 0.7073 222 215 212
0.58508 0.61286 0.94044 196 185 183
0.58494 0.61947 0.95128 233 228 225
0.0629901 0.47763 0.0669899 43 22 14
0.07946 0.47836 0.0729298 46 25 16
0.10565 0.47575 0.0819797 234 228 227
0.10856 0.47017 0.0992899 151 135 132
0.38288 0.52916 0.49965 71 44 37
0.39257 0.52912 0.50668 101 77 72
0.3931 0.52177 0.52001 70 45 37
0.40619 0.52119 0.52285 96 73 68
0.40353 0.5288 0.5151 178 167 162
0.5904 0.50842 0.63572 237 233 231
0.62419 0.51145 0.67941 95 70 64
0.63075 0.51205 0.68909 116 91 86
0.63896 0.51402 0.69633 128 102 96
0.63981 0.51381 0.69608 123 97 91
0.64548 0.51751 0.70652 125 100 96
0.65111 0.52123 0.71703 235 231 229
0.5836 0.59713 0.91574 143 120 117
0.58492 0.603 0.92623 174 162 159
0.0367199 0.4456 -0.0122702 216 192 189
0.0352601 0.44788 -0.00487019 206 179 174
0.0396 0.46777 0.0384798 239 236 234
0.04733 0.46302 0.0494299 81 52 45
0.05856 0.46961 0.0556099 50 26 17
0.0609499 0.46174 0.0683698 50 26 17
0.0782801 0.45796 0.0732598 48 26 17
0.0717801 0.46863 0.0743098 45 23 14
0.08896 0.46112 0.0799699 54 31 23
0.10785 0.45738 0.0951698 56 30 22
0.10191 0.46671 0.0903199 91 70 65
0.11426 0.461 0.10442 76 49 43
0.11938 0.46984 0.1137 214 207 206
0.37438 0.51604 0.49729 239 236 234
0.38548 0.51998 0.50912 80 53 47
0.39355 0.51907 0.51919 76 49 42
0.39038 0.51047 0.51949 86 59 52
0.40535 0.51483 0.53029 78 52 45
0.40886 0.51343 0.53094 76 51 44
0.41946 0.51368 0.53826 107 83 77
0.4283 0.514 0.5494 165 151 147
0.4317 0.51245 0.54715 170 158 154
0.44038 0.51269 0.55598 220 214 212
0.54327 0.49757 0.60299 187 176 173
0.55499 0.49974 0.60933 191 179 176
0.57966 0.50295 0.6251 200 191 188
0.59312 0.5045 0.64537 125 104 99
0.60102 0.50572 0.65377 112 92 87
0.60346 0.50182 0.67435 213 205 203
0.62418 0.50303 0.6881 217 211 209
0.63182 0.50442 0.69746 239 236 235
0.03539 0.43745 -0.0283001 228 212 210
0.03993 0.43234 -0.00950028 212 189 186
0.0337399 0.43611 -0.00602008 217 197 195
0.05362 0.45231 0.0447697 68 37 29
0.0573901 0.45002 0.0504799 61 33 24
0.0637001 0.44736 0.0650699 52 28 19
0.0859099 0.44859 0.0753498 48 25 18
0.09313 0.45083 0.0851197 43 21 14
0.10198 0.45346 0.0853398 43 20 11
0.10422 0.45149 0.0962698 42 19 11
0.12043 0.45218 0.10804 79 56 52
0.38364 0.50084 0.5202 141 121 117
0.38933 0.504 0.528 123 99 94
0.39567 0.50684 0.53328 170 150 146
0.4094 0.50608 0.53958 127 107 102
0.42039 0.50427 0.54596 91 65 58
0.43167 0.50304 0.55439 84 57 51
0.44845 0.50171 0.56959 109 85 80
0.44448 0.50481 0.56383 130 111 106
0.45752 0.50245 0.57377 142 123 119
0.53043 0.49034 0.60752 105 80 75
0.54505 0.49261 0.6173 124 99 95
0.5571 0.49441 0.62466 117 92 88
0.56243 0.49799 0.63494 128 104 101
0.58874 0.49994 0.66099 184 170 166
0.57502 0.54906 0.84274 220 211 209
0.57611 0.56972 0.88227 154 129 126
-0.03748 0.42494 -0.0942903 218 200 198
-0.0119101 0.41937 -0.0884302 228 218 215
-0.0222 0.41226 -0.0877202 235 225 224
-0.01076 0.40964 -0.0815501 234 224 223
0.03466 0.41304 -0.0394802 224 210 208
0.03924 0.41842 -0.0261302 235 226 225
0.04051 0.42882 0.00703977 226 210 207
0.03419 0.43316 0.0118298 234 224 223
0.03997 0.43913 0.0264797 197 167 161
0.04804 0.43319 0.0350499 113 84 77
0.0637899 0.43113 0.0491898 59 33 23
0.05946 0.43824 0.0514197 59 33 23
0.0634099 0.44477 0.0624399 55 30 21
0.08141 0.44331 0.0690799 47 26 17
0.0816999 0.4432 0.0895798 46 22 14
0.0876001 0.43579 0.0757298 49 24 16
0.10356 0.43899 0.0955298 80 58 52
0.1093 0.44492 0.10518 66 40 34
0.11752 0.44043 0.10775 112 88 84
0.3817 0.49507 0.53027 130 106 102
0.38764 0.49801 0.54012 121 98 94
0.40948 0.49717 0.54814 238 234 232
0.42146 0.49526 0.555 199 188 185
0.43396 0.49335 0.56267 119 98 93
0.44204 0.49256 0.57201 93 66 61
0.44985 0.49465 0.57927 90 61 55
0.45455 0.49432 0.58423 90 61 55
0.46633 0.49062 0.58914 86 60 53
0.51727 0.48361 0.61388 213 206 204
0.57383 0.55614 0.87994 212 203 200
-0.0200199 0.40222 -0.0784502 237 228 227
-0.0124401 0.40274 -0.0669003 234 224 222
0.0288499 0.40455 -0.0345802 204 187 184
0.0345701 0.40835 -0.0252803 220 201 198
0.0379399 0.41539 -0.00778009 217 196 192
0.03679 0.41957 0.0133498 229 216 214
0.0393399 0.42662 0.0266199 222 206 202
0.0626999 0.41885 0.0466697 62 34 26
0.0696999 0.42887 0.0664398 53 28 18
0.07012 0.42335 0.0566299 55 30 20
0.09312 0.42883 0.0837998 101 79 72
0.3754 0.48503 0.5302 229 223 221
0.37944 0.48899 0.5406 115 88 84
0.38702 0.4914 0.55173 153 135 131
0.43307 0.48449 0.57114 237 234 232
0.44455 0.48429 0.57893 175 160 157
0.494 0.47956 0.60532 171 156 151
0.56062 0.51574 0.80006 203 190 188
0.56061 0.51567 0.79998 203 190 188
0.56708 0.5342 0.86121 226 220 218
0.56733 0.53244 0.85293 204 192 189
-0.01677 0.39218 -0.0661803 234 223 221
-0.02008 0.3994 -0.0751202 235 225 224
0.00650988 0.39248 -0.0422001 218 207 204
0.0370201 0.40691 -0.000140205 229 216 214
0.0369099 0.40162 0.0118999 226 214 212
0.04012 0.41278 0.0217698 215 199 196
0.0453099 0.41373 0.0370197 97 65 58
0.0547899 0.41621 0.0438697 67 37 28
0.05889 0.40918 0.0494997 63 35 27
0.0693301 0.41228 0.0610599 54 29 19
0.0781001 0.41857 0.0670697 52 27 17
0.0849701 0.41161 0.0762799 133 111 104
0.0907 0.4168 0.0850699 211 197 192
0.0992199 0.41571 0.10349 225 209 206
0.0944401 0.42325 0.0969197 218 200 196
0.10406 0.42289 0.11672 222 205 202
0.37146 0.47986 0.54095 232 227 224
0.37713 0.48302 0.55136 124 97 93
0.3842 0.48522 0.56349 193 183 179
0.49177 0.47822 0.62837 129 110 105
0.48755 0.47068 0.62826 93 66 59
0.49601 0.4711 0.63681 95 67 61
0.50592 0.47875 0.63722 236 233 232
0.51124 0.47403 0.65938 157 141 137
0.55787 0.49756 0.76789 228 221 219
0.56114 0.51541 0.8014 193 178 176
0.5617 0.51497 0.82123 130 102 98
0.56168 0.51497 0.82109 129 101 97
0.56332 0.52114 0.83163 149 126 123
0.56451 0.52195 0.83879 183 168 165
0.56321 0.52096 0.8315 149 127 124
0.56332 0.52113 0.83151 148 125 122
0.56566 0.52829 0.85076 205 196 192
0.56532 0.52671 0.84231 183 165 163
-0.0294501 0.38303 -0.0624902 236 227 226
-0.02732 0.39316 -0.0634902 230 220 218
-0.01008 0.38665 -0.0543502 222 208 207
-0.0187301 0.3872 -0.0519302 232 221 220
-0.000719927 0.38674 -0.0455101 236 227 226
-0.00751009 0.38478 -0.0527501 232 221 219
0.000490047 0.38515 -0.0414303 236 228 227
0.00960002 0.38407 -0.0335102 211 198 195
0.01553 0.39212 -0.0338702 117 90 84
0.0193101 0.38395 -0.0274902 100 71 65
0.01852 0.38327 -0.0295003 115 88 82
0.03399 0.38674 -0.0189402 133 111 106
0.0333899 0.39639 0.0017297 207 192 189
0.03431 0.39004 0.0112397 152 127 122
0.0414001 0.39155 0.0125699 199 177 173
0.04854 0.39575 0.0229797 126 94 86
0.0428799 0.40059 0.0326898 122 90 82
0.0521999 0.40397 0.0404699 74 42 34
0.0598799 0.39694 0.0479898 66 37 29
0.0714401 0.39813 0.0553097 51 27 17
0.07981 0.40362 0.0618999 59 33 24
0.0856501 0.39946 0.0757599 170 152 147
0.08842 0.40621 0.0878699 222 207 204
0.09314 0.41134 0.0966899 224 208 204
0.0977 0.40333 0.10181 218 198 195
0.1033 0.41005 0.11464 238 228 226
0.37662 0.47602 0.56243 233 227 226
0.47343 0.47049 0.62313 194 183 180
0.48756 0.46283 0.63808 193 181 178
0.4892 0.46267 0.64056 185 172 168
0.49557 0.46371 0.64765 130 107 102
0.50467 0.47184 0.64774 124 102 96
0.50349 0.46394 0.65725 92 63 56
0.51048 0.46554 0.66819 100 70 63
0.55522 0.48564 0.76782 111 79 75
0.5596 0.49036 0.757 221 215 212
0.55475 0.49224 0.77859 119 91 88
0.55632 0.49812 0.7891 100 72 69
0.55679 0.50419 0.80138 116 87 83
0.557 0.5042 0.79974 111 82 78
0.55703 0.50427 0.79985 115 86 82
0.55436 0.50022 0.81726 231 226 223
0.5556 0.50253 0.81523 181 169 165
-0.0182799 0.37972 -0.0428303 235 225 224
-0.0115999 0.37959 -0.0427301 238 230 229
-0.00274005 0.37963 -0.0313401 238 230 229
-0.00291004 0.37651 -0.0341101 238 230 229
0.00828991 0.37795 -0.0231402 228 218 216
0.00631986 0.37677 -0.0247002 233 224 222
0.00937996 0.37546 -0.0262401 227 217 215
0.01852 0.3752 -0.0180102 169 150 145
0.0182301 0.37552 -0.0188201 170 152 147
0.02836 0.37699 -0.0122803 72 42 34
0.0308701 0.38476 0.00119969 92 61 54
0.0328299 0.37741 0.00845978 81 50 42
0.04697 0.38433 0.0244899 124 90 81
0.0391699 0.38342 0.0292997 126 93 85
0.04785 0.3928 0.0408599 80 48 40
0.0577599 0.38544 0.0492098 58 31 22
0.06579 0.39087 0.0582199 63 36 27
0.07857 0.39198 0.0642698 62 36 27
0.0825699 0.38912 0.0792999 196 179 174
0.0862499 0.39548 0.0903299 222 205 202
0.09069 0.38783 0.0968699 225 208 205
0.0914999 0.3999 0.0974698 225 208 205
0.097 0.39098 0.10092 227 211 209
0.10427 0.39224 0.10317 230 216 215
0.49473 0.4547 0.65544 238 234 232
0.50113 0.45689 0.66739 139 120 116
0.50841 0.45822 0.67751 94 66 61
0.55101 0.48065 0.77859 190 175 172
0.55275 0.48646 0.78908 198 185 183
0.55278 0.48649 0.78897 197 184 182
0.55351 0.49261 0.79972 197 185 184
-0.0108899 0.36763 -0.0364902 211 188 186
-0.00263014 0.36692 -0.0269702 235 225 223
-0.0155601 0.37373 -0.0262702 211 188 186
0.0128799 0.36506 -0.0167201 233 223 221
0.0226999 0.36685 -0.0109701 182 165 161
0.0377401 0.3618 0.00681969 71 41 32
0.0405201 0.36716 0.0170498 84 53 44
0.0511299 0.36879 0.0180697 99 68 60
0.05014 0.37738 0.0329199 85 52 44
0.0583499 0.37725 0.0538697 65 39 29
0.0759901 0.37657 0.0554597 63 37 27
0.06998 0.3783 0.0619199 62 36 25
0.07033 0.37767 0.0605099 62 36 25
0.07806 0.3709 0.0679397 137 114 108
0.07806 0.37092 0.0679397 137 114 108
0.08154 0.37787 0.0809898 204 185 180
0.08524 0.38385 0.0914099 217 198 195
0.0862099 0.38024 0.10747 212 185 182
0.0911001 0.38326 0.11148 219 198 196
0.0972699 0.38458 0.11173 233 220 219
0.49887 0.44986 0.67749 239 235 234
0.50578 0.45154 0.68832 210 202 199
0.51133 0.44804 0.68129 203 193 190
0.51215 0.44819 0.68284 200 191 188
0.52 0.44983 0.69073 131 114 108
0.52228 0.45887 0.70474 86 59 51
0.52448 0.45539 0.71318 123 100 95
0.53022 0.46024 0.72635 83 56 50
0.00259004 0.35802 -0.0189803 235 224 223
0.01274 0.36009 -0.0131102 234 223 222
0.0226 0.35767 -0.00270012 217 205 202
0.0242599 0.35629 -0.00123027 205 191 188
0.0409299 0.3607 0.0262298 83 55 45
0.0424899 0.36714 0.0387099 90 59 50
0.0505 0.36822 0.0535698 61 36 26
0.0702799 0.36411 0.0581999 62 36 27
0.07773 0.35758 0.0662698 151 130 125
0.07698 0.35871 0.0671899 157 140 135
0.0802599 0.36592 0.0807199 208 193 189
0.08264 0.37411 0.0966899 224 206 203
0.0895599 0.37127 0.11137 214 190 187
0.09422 0.37439 0.11551 229 214 211
0.52466 0.44569 0.71019 236 232 230
0.51782 0.45071 0.71338 214 207 205
0.52451 0.45066 0.72905 230 225 223
-0.0224501 0.34439 -0.0259302 203 194 192
-0.0145501 0.34941 -0.0192802 199 190 188
-0.00617995 0.35089 -0.0136502 235 225 223
0.00417004 0.34957 -0.0120802 232 221 219
0.01908 0.34849 -0.0068703 235 224 223
0.02699 0.34499 0.00792977 203 183 178
0.0252899 0.34959 0.00502989 207 192 187
0.02589 0.34637 0.00227973 215 199 194
0.0356599 0.34525 0.0121297 111 82 73
0.0283199 0.34254 0.0119998 184 163 158
0.0348099 0.34722 0.0250198 83 53 44
0.03981 0.35065 0.0426099 68 41 31
0.0534399 0.35554 0.0567398 61 35 25
0.07052 0.34924 0.0544398 65 38 30
0.07381 0.34915 0.0732198 175 153 149
0.07875 0.35432 0.0813698 224 213 209
0.0818399 0.36141 0.0938899 230 216 214
0.0823599 0.35673 0.10778 221 201 198
0.00398002 0.34286 0.00167987 235 225 224
-0.0075201 0.34623 0.00161979 219 201 198
-0.000179909 0.33393 0.00270984 224 208 206
0.00539003 0.33542 0.0133598 232 221 219
0.0145401 0.34241 0.00692984 229 216 214
0.0342799 0.33984 0.0422098 71 43 34
0.0460199 0.34388 0.0558498 60 36 26
0.0693599 0.33448 0.0571599 81 51 43
0.07998 0.3505 0.0968299 220 201 198
0.0840801 0.34174 0.10183 218 197 194
0.00272999 0.32373 0.00709984 229 216 214
0.0204199 0.32753 0.0275597 191 179 174
0.0181099 0.32824 0.0234699 223 218 215
0.04331 0.32103 0.0329699 73 46 37
0.0463599 0.33042 0.0546798 61 37 28
0.0674299 0.32204 0.0531797 70 43 35
0.0591899 0.33105 0.0500197 64 39 30
0.07892 0.33841 0.0974397 212 188 185
0.08821 0.33209 0.10449 231 217 215
0.00307999 0.31577 0.0188899 238 230 228
0.00976 0.31261 0.00586984 218 200 197
0.01306 0.31695 0.0266499 224 214 212
0.0173 0.31583 0.0245797 220 208 205
0.0310501 0.31864 0.0259499 92 66 57
0.0655199 0.30968 0.0532198 64 38 30
0.0739299 0.31554 0.0625298 133 113 108
0.0795799 0.32032 0.0708298 227 216 214
0.0781699 0.3079 0.0693297 225 214 211
0.0832599 0.31356 0.0796897 235 225 223
0.0928999 0.30587 0.0754499 236 225 224
0.0917099 0.31326 0.0894699 236 226 224
0.0917099 0.31326 0.0894699 236 226 224
0.00261006 0.30072 -0.000320226 232 220 218
0.00593004 0.30957 0.0174098 236 228 225
0.01418 0.30257 0.0239398 208 196 192
0.0240401 0.30407 0.0269999 120 98 92
0.0587801 0.30473 0.0463397 59 35 26
0.0591799 0.29665 0.0532698 59 35 26
0.07258 0.3024 0.0591798 130 110 104
0.07697 0.29488 0.0663998 223 213 210
0.0816499 0.30146 0.0790097 235 225 223
0.08209 0.30113 0.0782699 235 225 223
-0.000749968 0.28981 0.00160977 219 201 198
0.00744996 0.29332 0.00786993 217 200 197
0.00768004 0.2913 0.0258999 238 235 233
0.02922 0.29679 0.0354497 80 50 41
0.0672301 0.2828 0.0534999 78 53 45
0.07488 0.29015 0.0632097 200 188 184
0.08158 0.28721 0.0735998 234 224 222
0.0867201 0.2915 0.0805399 235 225 223
-0.00133004 0.27723 -0.0028601 238 229 228
-0.00110998 0.27806 -0.0012503 225 210 208
0.00518999 0.28072 0.0059199 231 220 219
0.00614987 0.27554 0.0199799 230 221 218
0.0177699 0.28064 0.0283398 110 88 82
0.03541 0.28169 0.0339899 68 42 33
0.05312 0.28254 0.0505798 56 34 26
0.0766901 0.27425 0.0566299 215 210 206
-0.00698008 0.26749 0.00116989 224 209 207
0.00557003 0.26333 0.0163398 204 182 177
0.000969984 0.27131 0.00890991 208 186 182
0.00199995 0.27102 0.00816986 208 186 183
0.0101701 0.26852 0.0278499 163 145 139
0.01891 0.27219 0.0360098 81 51 43
0.0300799 0.27156 0.0363297 75 49 40
0.03733 0.25936 0.0353498 69 45 35
-0.00253 0.25973 0.00877973 205 183 179
0.00965986 0.25515 0.0240898 141 110 103
0.0264801 0.25882 0.0328898 63 39 30
-0.00116005 0.24093 0.0222499 206 191 186
0.01274 0.2418 0.0506498 53 28 20
-0.00467005 0.21882 0.0268299 237 233 231
-0.000229977 0.20989 0.0333099 173 157 153
0.0379799 0.1994 0.0445299 47 24 13
0.0293199 0.21361 0.0465698 44 22 13
0.0266501 0.19568 0.0298297 49 24 14
0.0470799 0.18446 0.0408797 53 28 17
0.08564 0.16988 0.0219697 66 41 34
0.00473008 0.17937 0.0152897 188 174 170
0.0251001 0.17753 0.0217397 57 29 19
0.0753299 0.15599 0.0218398 62 36 26
0.0918699 0.15952 0.0265698 191 180 176
0.0784899 0.15887 0.0264198 70 44 36
0.0161 0.16615 0.0185599 64 33 24
0.0660499 0.14461 0.0205698 58 30 20
0.0777999 0.14856 0.0332798 142 124 119
0.0844899 0.14894 0.0322897 201 191 188
0.08598 0.14952 0.0347998 215 206 203
0.0962499 0.1487 0.0367698 235 230 228
-0.0822901 0.14584 -0.0653601 184 171 169
-0.06589 0.14996 -0.0449203 237 231 230
-0.00626006 0.15154 -0.00590019 232 226 225
0.00263987 0.15 0.0165097 152 132 127
0.01889 0.15856 0.0327699 56 27 18
0.05492 0.1471 0.0226798 61 32 22
0.0502799 0.13554 0.0210497 59 32 21
0.0591999 0.13814 0.0296497 62 34 24
0.07016 0.13752 0.0313498 115 93 86
0.08016 0.13766 0.0370297 210 201 198
-0.1009 0.13172 -0.0872102 199 187 184
-0.08962 0.12905 -0.0856603 87 58 52
-0.0756001 0.13787 -0.0554402 214 205 202
-0.0712201 0.142 -0.0553303 228 222 221
-0.0386399 0.13198 -0.0377801 228 222 220
-0.0111901 0.14241 -0.0072401 226 219 217
-0.00212993 0.14246 0.0045497 221 211 209
0.00507007 0.13901 0.0248298 80 51 43
0.0137199 0.14476 0.0257098 59 29 20
0.0261401 0.14558 0.0339698 59 30 21
0.05468 0.12561 0.0262398 62 33 24
0.0650099 0.12598 0.0300998 113 91 84
0.0678299 0.12561 0.0321497 153 134 128
0.0751799 0.12603 0.0373098 207 195 191
0.0770899 0.12575 0.0359299 213 202 199
-0.0996701 0.12401 -0.0759502 223 215 213
-0.0842301 0.12084 -0.0640502 124 101 96
-0.0690099 0.12944 -0.0481103 207 196 194
-0.0509001 0.12158 -0.0362502 212 203 200
-0.0284201 0.12236 -0.0356701 209 198 196
-0.00601997 0.13221 0.000179723 216 205 203
0.00258002 0.13489 0.0175397 128 105 99
0.01046 0.12466 0.0199799 68 38 29
0.0101 0.12753 0.0247297 66 36 26
0.01675 0.13275 0.0318198 60 32 21
0.02746 0.1202 0.0293097 58 32 22
0.0361899 0.12491 0.0366399 60 33 22
0.06666 0.11274 0.0327799 183 167 163
0.0703 0.1148 0.0349798 202 188 185
0.0756601 0.11803 0.0394198 208 194 191
0.0811699 0.11636 0.0446097 213 200 198
-0.0802301 0.11301 -0.0545502 147 127 122
-0.07173 0.11671 -0.0480903 89 63 57
-0.0650701 0.12562 -0.0285302 180 166 162
-0.05588 0.11082 -0.0342901 116 95 89
-0.01271 0.10838 -0.0213101 169 153 148
-0.00373997 0.11968 0.00337978 203 188 185
-0.00739994 0.1168 -0.00439028 202 188 185
-0.000650071 0.11081 0.0143199 130 107 100
0.01752 0.11813 0.0302598 59 31 21
0.00740991 0.11793 0.0331897 59 31 21
0.0365399 0.10854 0.0348999 61 34 24
0.0730399 0.0976899 0.0272197 200 184 181
0.0729099 0.0995499 0.0314698 192 173 170
0.07137 0.11078 0.0521497 180 156 154
-0.0751101 0.10514 -0.0456603 164 147 141
-0.0619 0.10084 -0.0317302 102 77 69
-0.06628 0.1082 -0.0404802 91 64 56
-0.0530299 0.10286 -0.0248502 71 46 37
-0.0422601 0.0994299 -0.0166803 62 39 30
-0.00955 0.10222 -0.00768022 193 179 175
-0.00509014 0.10316 0.000329688 190 175 170
-0.00328007 0.10713 0.00430985 184 167 162
0.00728998 0.10279 0.0301299 56 30 19
0.0184101 0.10191 0.0254199 57 32 21
0.0236801 0.11083 0.0402598 58 32 22
0.0470599 0.0959098 0.0263798 66 37 29
0.05737 0.0913398 0.0378799 153 127 121
0.0567199 0.0893999 0.0338697 146 122 116
0.0709001 0.0930699 0.0416398 192 172 169
-0.01345 0.0903999 -0.00424032 127 109 100
-0.00844993 0.0935799 0.00182982 176 160 152
0.0480701 0.0821699 0.0266797 69 42 32
0.0611599 0.0783199 0.0337398 160 137 130
0.0839299 1.89896 0.15876 47 29 18
0.0767499 1.8943 0.15253 54 34 22
0.0463899 1.87513 0.13068 102 94 79
0.0523001 1.86905 0.13456 57 43 24
0.0455299 1.86344 0.12838 154 149 138
0.0595699 1.86384 0.14011 56 40 25
0.07469 1.84606 0.14683 50 27 17
0.0751799 1.77365 0.14837 65 37 18
0.0595699 1.76334 0.14228 223 219 215
0.0591999 1.76383 0.14186 226 223 219
0.0833901 1.5742 0.14892 196 189 181
0.14947 1.40904 0.13893 59 35 24
0.18534 1.3172 0.164 232 230 229
0.14803 1.30314 0.12994 52 29 18
0.1408 1.28575 0.12811 68 46 33
0.82602 1.1711 0.0531698 192 188 183
0.15928 1.2368 0.13605 65 40 28
-0.0115301 1.21551 0.05719 236 235 232
-0.00696006 1.20702 0.0575798 225 223 219
0.12688 1.19789 0.13686 49 32 22
0.164 1.17019 0.13868 54 43 36
0.21449 1.14548 0.17415 180 172 168
0.71092 1.06256 0.0452099 127 112 108
0.15256 1.14129 0.13883 55 37 28
0.18606 1.1305 0.13913 72 51 41
0.19061 1.13053 0.14367 69 47 38
0.19485 1.1284 0.14763 68 47 37
0.0986999 1.11469 0.07965 111 95 90
0.12094 1.11199 0.12333 64 43 35
0.18249 1.10954 0.14416 52 32 23
0.19257 1.11029 0.14876 62 42 33
0.11375 1.08259 0.22955 93 61 59
0.34529 0.99656 0.10942 63 37 31
0.26836 0.99619 0.10781 226 222 219
0.2826 0.9972 0.10728 170 157 153
0.33924 0.9857 0.1109 128 110 104
0.32507 0.98549 0.11111 199 191 187
0.37535 0.98592 0.11006 145 131 124
0.44066 0.96369 0.10424 137 122 117
0.44565 0.95467 0.11118 60 36 29
0.11645 0.99802 0.10395 59 33 25
0.46242 0.94935 0.11335 84 64 58
0.1543 0.98159 0.12359 190 181 178
-0.68739 1.06488 0.0930899 73 48 43
0.16338 0.90098 0.14404 238 236 235
0.11192 0.84298 0.0946398 60 37 30
-0.66049 0.97513 0.13497 222 217 215
-0.6209 0.94832 0.14727 238 235 233
-0.62147 0.9488 0.14717 237 234 232
0.14128 0.7836 0.0926697 238 236 234
0.24312 0.72219 0.00920987 170 158 154
-0.6289 0.91947 0.15436 183 171 168
-0.48781 0.90698 0.23539 209 201 198
0.0833601 0.74726 0.0640698 93 70 63
-0.46424 0.89191 0.22758 156 147 143
0.07559 0.74233 0.0570698 233 229 226
0.19636 0.70653 0.0275798 206 198 194
0.09316 0.65714 0.0913699 68 43 34
0.36882 0.62701 0.44764 208 201 198
-0.30887 0.70097 0.19483 228 223 220
0.36678 0.61554 0.44826 90 67 62
0.35588 0.6104 0.44246 115 98 93
-0.18641 0.62909 0.16609 134 112 106
-0.17463 0.61867 0.16855 86 59 50
-0.1784 0.61762 0.16478 81 53 42
-0.14933 0.61863 0.16145 202 194 190
-0.14918 0.61843 0.16022 206 198 195
-0.16383 0.61129 0.16678 78 49 40
-0.13299 0.60239 0.15171 90 66 59
-0.14102 0.60554 0.15714 84 57 50
-0.12601 0.5919 0.15257 73 45 37
-0.13745 0.59149 0.15698 120 99 93
0.58869 0.62431 0.94039 133 103 101
0.0860799 0.4907 0.0672698 49 27 18
0.62979 0.50609 0.66787 86 63 58
0.57517 0.56362 0.87176 142 114 110
0.13052 0.44421 0.116 218 206 203
0.0806199 0.43077 0.0679297 51 27 17
0.0859199 0.42411 0.0767297 73 48 41
0.56695 0.52621 0.82049 172 153 151
0.56709 0.52613 0.82052 172 153 150
0.56663 0.52626 0.82183 161 140 138
0.56664 0.52624 0.82171 162 141 139
0.56687 0.52602 0.82032 170 151 148
0.0398999 0.39694 -0.0190001 210 187 184
0.53027 0.47848 0.68325 238 234 232
0.56152 0.50878 0.79178 207 194 192
-0.02186 0.38275 -0.0626302 228 216 214
0.50888 0.45837 0.678 98 69 63
0.51754 0.45876 0.68554 77 49 41
0.51515 0.45986 0.68822 77 50 42
0.0217601 0.33391 0.0047898 195 165 160
0.0305799 0.33532 0.0217597 120 95 89
0.0784601 0.34423 0.0638499 157 134 129
0.07804 0.34402 0.0646198 160 137 132
0.0776099 0.34266 0.0826099 217 198 195
0.0805999 0.33101 0.0658297 196 175 171
0.0871299 0.32439 0.0743398 210 187 184
0.0198599 0.29312 0.0288999 131 109 103
0.01664 0.21052 0.0318498 50 23 14
0.0988301 0.17241 0.0224199 208 200 197
0.10012 0.17278 0.0231797 214 207 204
-0.00211992 0.16546 0.00679989 234 227 225
0.0607401 0.15818 0.0231697 56 29 18
0.09667 0.14892 0.0394797 238 234 233
0.0904499 0.14117 0.0442197 236 231 231
0.10097 0.13579 0.0373697 237 232 231
0.10656 0.13619 0.0354299 237 232 231
-0.09206 0.139 -0.0920802 140 121 117
-0.00891008 0.13211 -0.0294903 233 228 227
0.08615 0.12839 0.0433897 237 232 231
0.08842 0.12641 0.0438797 237 232 231
-0.11109 0.12403 -0.0873502 237 231 231
0.0830201 0.11834 0.0443699 233 227 226
-0.10975 0.11461 -0.0805102 238 234 233
0.0846399 0.10258 0.0372598 213 201 200
-0.08736 0.10517 -0.0477803 238 233 232
-0.0988499 0.10141 -0.0582602 239 233 232
-0.0217201 0.0882798 -0.0124302 58 37 27
-0.000440024 0.0981699 0.0201199 83 57 46
0.0172199 0.0884999 0.0260098 53 30 18
0.0376399 0.0901998 0.0223698 61 35 25
0.0677501 0.0780799 0.0349698 199 183 178
-0.0853001 0.0834299 -0.0479901 239 234 233
-0.07397 0.0829899 -0.0381301 236 231 230
-0.0589899 0.0826399 -0.0266602 198 186 181
-0.0496601 0.0891099 -0.00963025 111 92 83
-0.0343801 0.0839698 -0.0181401 58 37 27
-0.0185701 0.0769399 -4.0099e-05 62 40 27
-0.00781002 0.0800399 0.00585981 84 61 49
0.00192008 0.0872198 0.0275897 58 33 21
0.03999 0.0713599 0.0194499 62 36 25
0.06187 0.0673899 0.0451698 162 132 125
-0.0711099 0.0765199 -0.0241101 212 201 197
-0.0502001 0.0670099 -0.0200103 211 201 194
-0.02833 0.0712599 -0.0140303 66 44 32
-0.0126401 0.0659999 0.00881977 66 44 30
-0.00342002 0.0720298 0.0209398 59 36 24
0.01223 0.0691799 0.0238497 53 30 18
0.0583299 0.0549299 0.0241498 137 108 99
0.0736299 0.0509599 0.0397798 132 93 83
-0.07925 0.0679799 -0.0119303 221 213 208
-0.0634901 0.0647399 -0.0214103 214 203 195
-0.04592 0.0583599 -0.0144501 190 176 165
-0.031 0.0571998 -0.0120402 126 105 92
-0.03538 0.0580399 0.00483984 135 115 98
-0.0238401 0.0636299 0.00556989 70 48 32
-0.00650992 0.0554599 0.0194597 55 34 21
0.00350008 0.0602899 0.0282998 51 29 17
0.05257 0.03686 0.0196797 94 65 52
0.07124 0.0340698 0.0287599 125 94 77
0.0711001 0.0325398 0.0256597 125 94 77
0.0702201 0.0307398 0.0219397 123 94 76
-0.0367299 0.0439899 -0.0150603 151 133 115
-0.0243 0.0448198 -0.00940019 102 82 62
0.0841199 1.92057 0.15177 55 39 29
0.0702699 1.8563 0.14117 52 30 19
0.07385 1.84638 0.14573 52 28 16
0.07107 1.83239 0.14392 53 30 14
0.10057 1.6051 0.15657 69 41 20
0.0827499 1.59473 0.15374 141 125 107
0.15107 1.47901 0.13827 206 200 194
0.13903 1.48309 0.14852 100 79 65
0.10665 1.47232 0.16411 206 201 192
0.15683 1.46615 0.1383 204 199 192
0.11087 1.4587 0.16397 226 222 216
0.111 1.45871 0.1639 225 221 215
0.16087 1.45518 0.13645 132 118 105
0.17139 1.43019 0.1397 94 81 69
0.18339 1.42993 0.13234 232 230 226
0.12855 1.42029 0.13833 127 116 101
0.12838 1.4189 0.13911 127 116 101
0.13326 1.42462 0.14254 62 41 25
0.18809 1.41923 0.13073 230 228 225
0.17494 1.38583 0.15657 72 58 44
0.14606 1.37512 0.13704 53 32 19
0.15105 1.27975 0.13281 52 28 17
0.14842 1.25977 0.14092 51 28 17
0.15427 1.24489 0.12969 57 32 20
0.14448 1.23825 0.14291 59 35 22
0.16245 1.2028 0.13493 45 30 22
0.11537 1.17419 0.13019 181 175 169
0.12636 1.15416 0.13618 54 37 27
0.1493 1.15074 0.13396 48 32 21
0.16224 1.15081 0.13092 84 71 63
0.0522099 1.13085 0.0658398 112 90 83
0.14097 1.1413 0.14305 50 33 23
0.2118 1.14369 0.16304 114 98 92
0.04664 1.11733 0.0568099 222 217 214
0.038 1.12973 0.0631798 173 162 157
0.10188 1.12016 0.10315 222 218 215
0.17576 1.12832 0.12907 68 48 39
0.16141 1.12075 0.14196 46 30 21
0.11727 1.11944 0.12094 60 41 33
0.11267 1.09997 0.0944999 74 49 39
0.1869 1.10033 0.14872 160 148 143
0.1961 1.10204 0.16006 205 199 196
0.67038 1.03421 0.0467599 217 212 209
0.66717 1.0256 0.0514899 134 118 115
0.13144 1.09153 0.12866 53 33 25
0.63089 0.99174 0.0646699 112 94 89
0.63713 0.98078 0.0635298 181 172 168
0.28285 1.0194 0.10596 239 237 235
0.33865 1.00736 0.10691 233 229 227
0.24799 1.00986 0.10226 65 41 32
0.26254 1.00703 0.0984597 69 44 36
0.27678 1.00822 0.10519 80 57 49
0.27284 1.0076 0.10379 75 51 43
0.29039 1.00795 0.10686 97 75 68
0.30208 1.00815 0.11052 140 125 119
0.31528 1.0081 0.11026 210 204 200
0.32296 0.99675 0.11125 75 52 44
0.32956 1.0082 0.11195 236 234 231
0.33222 0.9969 0.11072 78 55 47
0.35805 0.99604 0.10806 137 123 118
0.57209 0.96362 0.0886297 208 201 198
0.57565 0.96156 0.0809899 196 188 185
0.59968 0.96093 0.0771399 110 92 86
0.25382 0.9986 0.10374 206 200 197
0.24265 0.99949 0.10511 204 196 193
0.26753 0.99616 0.10337 218 213 210
0.2553 0.99601 0.10641 236 234 232
0.27954 0.99642 0.10572 194 185 181
0.2714 0.99674 0.1027 196 188 184
0.31626 0.98608 0.11364 222 218 215
0.30874 0.99719 0.11188 85 62 54
0.38785 0.98588 0.10887 214 210 205
0.56061 0.96355 0.0936899 202 196 193
0.56776 0.95279 0.0932398 69 46 38
0.56836 0.95205 0.0908199 70 47 39
0.59415 0.95006 0.0795398 205 197 195
0.47908 0.95832 0.10482 210 205 201
0.53373 0.95037 0.11228 141 127 122
0.55693 0.95184 0.09564 70 47 39
0.56155 0.94175 0.09757 74 54 47
0.57523 0.94206 0.0932498 174 165 161
0.47399 0.94604 0.11134 131 116 111
0.55117 0.94084 0.0999899 70 47 39
0.55366 0.94148 0.10282 70 49 40
0.5455 0.93291 0.11234 93 73 66
0.55241 0.93028 0.10537 128 113 109
0.10484 0.97649 0.09494 116 99 92
0.10662 0.97405 0.09933 69 45 36
0.11309 0.97561 0.09511 58 34 25
0.1224 0.97858 0.0972598 59 35 28
0.11076 0.96449 0.0939999 55 28 19
0.4688 0.91583 0.11993 142 128 124
0.10967 0.92936 0.0915399 54 29 20
0.0940701 0.88867 0.08879 138 123 118
-0.64239 0.96693 0.13863 100 80 75
-0.64178 0.9666 0.13754 106 87 82
-0.63731 0.95768 0.14194 106 86 81
-0.62643 0.95771 0.14373 234 230 229
-0.63183 0.94829 0.14569 108 88 82
-0.63764 0.93921 0.14735 154 139 135
0.13732 0.79346 0.0896299 196 189 185
0.08347 0.78236 0.0663898 182 171 168
0.13139 0.78139 0.0897298 132 118 112
-0.47848 0.89241 0.23146 127 112 106
0.26697 0.72794 0.0105898 103 86 81
0.07627 0.7548 0.0592499 200 192 188
0.12757 0.75724 0.0841398 116 99 93
0.23222 0.72355 0.0142698 194 186 183
0.2304 0.71849 0.0223999 96 74 67
0.22321 0.71949 0.0203199 125 108 102
0.18229 0.71294 0.0312798 106 82 76
0.23778 0.71179 0.01383 69 46 38
-0.56097 0.85718 0.18557 224 219 216
0.17084 0.71223 0.0334098 100 78 71
0.17292 0.705 0.0362299 145 129 122
0.15939 0.70868 0.0424399 89 65 56
0.17829 0.70118 0.0329998 214 208 204
0.16619 0.70138 0.0389199 186 175 169
0.13708 0.68744 0.0583298 123 106 99
0.05157 0.6563 0.0685499 222 216 214
0.0574499 0.64619 0.0729198 183 172 168
-0.27013 0.70027 0.152 107 87 82
0.0637599 0.63455 0.0740998 81 59 51
-0.25902 0.69423 0.1552 193 184 181
0.04311 0.62594 0.0760298 238 236 235
-0.31908 0.70366 0.20312 174 161 156
-0.3155 0.69322 0.2059 81 53 44
-0.29823 0.68875 0.18766 165 151 146
-0.30105 0.68994 0.19419 131 111 104
-0.27743 0.67514 0.18476 87 57 47
-0.27379 0.68097 0.17263 90 61 52
-0.41229 0.69753 0.21953 223 218 217
-0.20328 0.64238 0.17291 201 191 186
-0.20322 0.64207 0.1732 196 185 181
-0.12138 0.60254 0.14662 144 129 123
-0.10705 0.60253 0.14108 208 201 197
0.0772 0.54642 0.0791199 49 27 19
-0.19197 0.61809 0.16974 74 44 34
-0.17218 0.60586 0.16232 89 64 56
-0.10032 0.59149 0.14236 78 51 43
-0.11495 0.57812 0.14379 175 162 157
-0.10076 0.57088 0.14365 230 226 224
-0.02497 0.55414 0.11109 72 45 37
-0.00610008 0.54461 0.0967 76 49 41
-0.00377002 0.54837 0.0982199 60 33 24
0.0754999 0.53225 0.0785799 50 29 21
0.000529863 0.53166 0.0877299 180 169 165
0.0551399 0.51232 0.0633399 35 15 8
0.0663301 0.50879 0.0646398 39 20 12
0.05049 0.50007 0.0566897 39 17 10
0.05298 0.49236 0.0628698 42 20 13
0.0425099 0.44769 0.0388398 162 147 143
0.04594 0.43476 0.0390899 115 91 85
0.0468999 0.43344 0.0360198 115 91 85
0.0460399 0.42118 0.0367598 92 64 55
0.1211 0.43293 0.11648 217 200 197
0.02783 0.33796 0.0177798 174 159 155
0.4838 0.46948 0.62872 121 99 94
0.56353 0.52098 0.81198 171 152 149
0.56347 0.52111 0.8108 181 164 162
0.56363 0.52101 0.81079 181 164 162
0.04561 0.26372 0.0474698 60 38 29
0.0867599 0.22626 0.0347697 125 109 103
0.10004 0.2266 0.0297699 92 71 65
0.10092 0.22634 0.0309197 84 61 55
0.09385 0.21333 0.0320899 48 25 15
0.08599 0.1973 0.0255899 44 23 13
0.08806 0.20202 0.0269599 41 20 10
0.0997399 0.19815 0.0209198 52 31 23
0.0132199 0.19472 0.0192098 72 42 35
0.0916401 0.18333 0.0199799 63 41 33
0.10511 0.18445 0.0192298 177 168 165
0.10413 0.18436 0.0190298 167 157 153
0.0615901 0.11289 0.0282897 142 124 118
0.0767001 0.10499 0.0644397 214 199 197
0.0535799 0.0666099 0.0246298 100 71 62
0.0166899 0.0605099 0.0350599 52 30 18
0.04579 0.0499399 0.0215098 67 40 28
-0.0791799 0.0636799 0.0114498 185 173 161
-0.01549 0.0497199 0.00906986 61 41 26
-0.01356 0.0419099 0.00830978 53 37 22
0.00860987 0.0505699 0.0372397 54 33 21
0.0323299 0.0498799 0.0249597 57 34 22
-0.03429 0.0318599 -0.0136102 106 99 75
-0.0254799 0.0390098 -0.00022012 100 87 66
-0.0196799 0.0282698 0.00530976 58 58 37
0.0281299 0.0293298 0.0118799 51 30 19
0.0344499 0.0275998 0.00403971 52 30 18
0.0461601 0.0195398 0.0127198 69 45 31
0.0524601 0.01859 0.0142497 99 74 58
0.0607699 0.0189998 0.0172698 117 91 72
0.0609399 0.0244899 0.0173098 118 90 71
0.0689801 0.0299299 0.0441398 119 91 73
0.0794099 0.0241299 0.0384697 124 95 77
-0.0289699 0.0237198 -0.00372011 73 82 58
-0.0099 0.0121298 0.00520986 42 35 20
0.00324998 0.0133498 0.00310987 48 29 17
0.0194701 0.01633 0.0131697 49 29 18
0.01625 0.0216298 0.0193197 49 30 19
0.0347699 0.01208 0.00644988 50 31 19
0.0484699 0.0123799 0.0134599 80 58 41
0.05857 0.0217199 0.0340099 124 93 75
-0.0226301 0.0097599 -0.00128013 61 76 54
-0.00166001 -0.000510216 0.00427979 43 28 14
0.00974999 0.00239992 0.00541967 47 27 15
0.12973 1.95065 0.1728 235 234 233
0.1451 1.48811 0.14033 204 198 191
0.15158 1.45548 0.14225 137 125 115
0.1084 1.44645 0.17626 236 234 231
0.15405 1.44413 0.1396 81 64 52
0.16258 1.43651 0.13694 85 67 54
0.16459 1.42071 0.14671 75 57 44
0.16227 1.22349 0.12819 70 46 34
0.0266601 1.12817 0.0543099 150 136 131
0.17514 1.12835 0.12661 66 47 38
0.63962 1.00224 0.0577398 170 160 156
0.26649 1.01851 0.10118 206 200 197
0.3515 1.00752 0.10836 236 233 232
0.42129 0.97389 0.10239 207 201 197
0.51154 0.95327 0.11068 205 198 195
0.54973 0.93066 0.10918 114 99 94
-0.65408 0.96551 0.13847 206 200 196
-0.64873 0.95788 0.14052 182 172 168
-0.64313 0.94851 0.14379 165 153 148
-0.48079 0.91844 0.23934 79 53 47
0.0876099 0.81704 0.0702198 207 200 196
0.25519 0.72779 0.00540996 169 158 154
0.21143 0.71874 0.0216899 122 103 98
0.12306 0.73198 0.0823097 83 63 55
0.13894 0.7337 0.0725398 225 221 218
0.22251 0.7057 0.0197799 170 158 152
0.14643 0.70919 0.0501499 80 57 48
0.13589 0.70109 0.0576799 65 43 33
-0.25847 0.70496 0.14713 239 236 235
-0.27391 0.6916 0.1636 104 80 73
0.0888101 0.53273 0.0822399 57 34 26
0.01643 0.53797 0.0910099 63 40 32
0.0665001 0.52711 0.0760298 42 25 16
-0.0266899 0.37925 -0.0497802 231 220 219
0.11191 0.22563 0.0259897 126 109 104
0.0498401 0.21369 0.0484397 43 22 12
0.0787199 0.21327 0.0355498 52 32 22
0.08034 0.21229 0.0338099 50 30 20
0.0932499 0.18256 0.0181698 70 49 42
0.10643 0.18394 0.0149698 176 166 163
0.0686899 0.16842 0.0199599 50 26 17
0.0784501 0.18326 0.0262599 50 27 18
0.0312599 0.15944 0.0411398 56 27 17
-0.0296501 0.10073 -0.0145803 60 38 28
0.0521301 0.0964099 0.0236399 73 47 40
-0.00562992 0.0285399 0.0093798 50 32 18
0.0765699 0.0197299 0.0293497 119 93 73
-0.0151299 -0.0062902 -0.00302011 48 52 33
0.00432 -0.00705004 0.0153598 43 26 13
0.05257 -0.00063014 0.0180499 91 70 51
0.0642799 -0.00878 0.0201597 114 93 70
0.0177499 1.87913 0.10248 232 229 228
0.1168 1.47156 0.16086 79 59 38
0.11684 1.47169 0.16074 79 58 37
0.16352 1.12776 0.12767 56 39 29
0.0890699 1.11767 0.0693498 108 91 85
0.17133 1.10556 0.13659 47 29 21
0.39436 0.97512 0.10947 90 67 60
0.41016 0.97374 0.10363 168 155 151
0.54354 0.94066 0.10575 75 51 43
0.56327 0.92919 0.0978699 220 216 213
-0.28237 0.68598 0.17546 174 161 156
0.0205 0.51989 0.0818899 203 196 192
0.03064 0.51751 0.0691798 66 46 39
0.0480801 0.44576 0.0345099 107 79 73
0.0791799 0.2402 0.0403199 217 212 209
0.0943199 0.21155 0.0253398 49 26 16
0.0747999 0.19743 0.0349998 46 26 16
0.0646599 0.19311 0.0386898 48 27 17
0.14608 0.6954 0.0492098 59 35 25
-0.13401 0.61645 0.15339 231 227 224
0.04978 0.55074 0.0893998 43 25 16
0.01188 0.532 0.0820398 85 64 57
0.41524 0.52315 0.52992 196 185 180
0.0711299 0.22735 0.0416498 81 62 52
-0.0905201 0.0831699 0.0404398 179 165 154
0.1187 1.44705 0.15661 165 155 148
0.11841 1.44724 0.15785 156 147 140
0.0639099 1.85245 0.17033 215 211 208
0.00434003 1.30811 -0.55926 173 162 159
0.00531993 1.30286 -0.56773 213 208 205
0.00500999 1.30296 -0.56863 223 219 216
0.0016099 1.30336 -0.55138 179 168 164
-0.00307002 1.28346 -0.55179 135 117 110
-0.00825991 1.20315 -0.46679 152 135 129
-0.00625005 1.19192 -0.46598 93 65 57
0.0912901 1.11017 -0.0973701 220 210 208
0.0948199 1.109 -0.0928502 224 215 213
0.0988201 1.1087 -0.0608601 221 209 205
0.01575 1.10535 -0.30818 221 213 207
0.0763799 1.1104 -0.10514 213 200 196
0.0884801 1.10535 -0.0868101 187 167 160
0.0956601 1.10442 -0.0556602 162 132 126
0.11136 1.10751 -0.00437017 217 207 204
-0.00968995 1.10695 -0.37966 73 48 41
0.00145993 1.10121 -0.32394 121 95 86
0.0291301 1.09493 -0.29072 129 100 94
0.0294801 1.09524 -0.27497 116 87 80
0.10937 1.09671 -0.00444002 102 72 62
0.13701 1.09529 0.15504 224 218 215
0.12519 1.10332 0.32541 214 205 203
0.01412 1.08849 -0.31866 156 139 133
0.02556 1.09048 -0.2831 153 129 125
0.12096 1.08391 0.1873 155 135 131
0.11951 1.08462 0.1832 196 184 180
0.11668 1.09103 0.19322 206 197 194
0.11114 1.09701 0.20696 199 187 184
0.11431 1.0856 0.2048 121 90 87
0.11313 1.09594 0.20523 198 187 184
0.11594 1.09055 0.21879 114 84 81
0.12729 1.07267 0.1203 87 59 49
0.132 1.0713 0.1386 134 110 101
0.12535 1.07755 0.15394 228 223 220
0.10757 1.08213 0.21313 113 85 81
0.12258 1.08152 0.26807 235 230 229
0.12718 1.06078 0.11932 86 58 49
0.12314 1.03999 0.13681 88 59 50
0.12841 1.03351 0.12945 77 48 40
0.12621 1.02527 0.13189 105 77 71
0.11763 1.03481 0.14529 197 185 182
0.12195 1.03197 0.14078 165 148 143
0.10466 0.99189 0.0906999 122 94 88
0.1121 0.7935 0.10688 119 89 82
0.11201 0.78698 0.1155 198 184 180
0.10754 0.74765 0.10654 162 138 131
0.10498 0.72488 0.10541 157 133 127
0.10607 0.72933 0.0981999 102 71 61
0.10489 0.73182 0.11286 233 226 225
0.59015 0.63584 0.95388 128 99 96
0.58598 0.60942 0.89628 225 218 217
0.0979501 0.71062 0.0882499 78 51 40
0.1079 0.69995 0.10336 139 114 106
0.58494 0.59984 0.89923 150 125 123
0.57896 0.57519 0.87176 205 193 190
0.57715 0.5612 0.86373 170 148 145
0.57622 0.55512 0.85351 193 178 175
0.57419 0.54278 0.83271 236 231 230
0.6088 0.49484 0.71599 229 222 220
0.56133 0.50063 0.7767 226 219 217
0.55887 0.50977 0.78897 214 202 201
0.55895 0.50979 0.78894 215 203 202
0.00502 0.63018 0.18212 214 201 199
0.00666008 0.63335 0.19963 222 212 210
0.0128499 0.6162 0.16653 184 164 160
0.01026 0.62263 0.17574 202 186 183
0.00565992 0.62199 0.19635 125 90 85
0.52465 0.46775 0.68598 107 73 67
0.0249999 0.60515 0.13933 197 178 175
0.01821 0.6029 0.14847 149 115 110
0.0164801 0.6095 0.15756 171 146 142
0.01096 0.60449 0.16668 122 85 79
0.00925002 0.61053 0.17634 123 86 80
0.00918994 0.61071 0.17634 123 86 81
0.00542007 0.61663 0.18618 154 121 117
0.00422988 0.61432 0.19896 173 147 143
0.51791 0.46684 0.6775 111 82 75
0.0201899 0.58891 0.12911 147 109 103
0.0191101 0.5953 0.13849 141 102 95
0.0133999 0.59039 0.14728 221 208 203
0.0122601 0.59747 0.15612 185 160 156
0.00513993 0.60303 0.1931 221 211 209
0.00760994 0.59353 0.16557 236 228 225
0.12618 1.57306 0.11223 161 156 152
0.0997101 1.10909 -0.0468001 209 193 188
0.12436 1.09828 0.25897 179 165 163
0.11809 1.07926 0.19625 113 81 76
0.11471 1.08718 0.20507 128 98 94
0.12318 1.08643 0.26067 147 122 120
0.12568 1.06797 0.12665 94 64 54
0.11502 1.07523 0.20589 164 144 142
0.57463 0.55737 0.86117 155 131 127
0.14703 0.5283 -0.17241 148 117 115
0.00821004 0.58826 0.13675 232 222 218
0.09826 1.84627 0.15163 200 195 192
0.0930999 1.81912 0.14308 205 201 197
0.0942999 1.82039 0.14183 218 215 213
0.0960599 1.76695 0.14005 210 206 201
0.11306 1.7676 0.12976 224 223 220
0.10457 1.76094 0.13464 132 128 122
0.11358 1.75493 0.12782 159 157 154
0.10479 1.74843 0.13634 74 68 62
0.10605 1.73612 0.13563 216 213 210
0.12313 1.59951 0.11874 235 234 232
0.13049 1.59592 0.10982 181 180 177
0.1202 1.5936 0.13009 203 200 197
0.12173 1.59313 0.13089 208 205 203
0.12027 1.57475 0.13872 58 45 35
0.12327 1.58204 0.12917 64 55 49
0.12383 1.58123 0.13094 63 54 48
0.12045 1.57243 0.13787 57 44 35
0.12555 1.56787 0.12948 181 176 172
0.13803 1.43643 0.15524 54 34 22
0.24579 1.05526 -0.0785601 235 233 232
0.23439 1.04948 -0.06237 182 174 169
0.24232 1.04728 -0.0703702 94 78 72
0.25041 1.04415 -0.0784502 153 143 139
0.24685 1.03606 -0.0707101 202 197 193
0.19211 1.03898 0.02682 159 148 142
0.19888 1.04008 0.00904992 133 119 112
0.19792 1.03622 0.0169399 109 93 84
0.21769 1.00845 0.10311 80 56 47
0.61505 0.98356 0.07456 119 102 96
0.60825 0.97313 0.0774799 66 43 36
0.50381 0.95693 0.10904 227 224 221
0.51103 0.94808 0.11702 97 77 70
0.53813 0.95531 0.12042 157 147 142
0.50433 0.93671 0.11623 171 161 156
0.53465 0.94231 0.12253 74 52 43
0.51649 0.93401 0.12661 212 207 203
0.01798 0.57253 0.11957 61 39 29
0.0107599 0.55189 0.1003 51 28 19
0.02346 0.5583 0.10992 43 22 15
0.03314 0.53322 0.0774197 38 18 10
0.0630399 0.2138 0.0421497 48 27 16
0.10903 1.72446 0.13339 229 227 224
0.12239 1.56148 0.13716 195 190 185
0.12463 1.54936 0.1386 198 194 189
0.12798 1.53745 0.14028 225 223 219
0.12651 1.53881 0.14059 214 211 207
0.24223 1.03904 -0.05428 119 104 98
0.18676 1.04187 0.0368698 232 229 226
0.19744 1.03116 0.0201798 119 104 96
0.2056 1.02867 0.00217989 198 191 186
0.19764 1.0293 0.0260399 152 141 134
0.0807401 1.83028 0.18716 234 233 231
0.12388 1.67837 0.14798 154 141 132
0.11839 1.58659 0.14161 232 230 225
0.11298 1.57876 0.14717 96 78 66
0.13138 1.58532 0.12644 54 46 39
0.13389 1.58231 0.11161 184 182 178
0.12121 1.4997 0.15869 72 46 29
0.0152601 1.30608 -0.55201 143 141 138
0.00266991 1.29912 -0.54008 150 148 146
0.000569917 1.29104 -0.52881 210 209 208
-0.00189009 1.28402 -0.51884 232 231 230
0.00594006 1.27898 -0.52887 98 96 95
0.00900994 1.28761 -0.53789 123 120 118
0.00228987 1.27056 -0.52146 115 113 111
0.0107599 1.26722 -0.52926 184 183 182
0.0136999 1.27532 -0.53852 234 233 232
-0.00171008 1.25491 -0.50024 211 210 208
0.000409938 1.26228 -0.51052 158 157 155
0.00888 1.25912 -0.51984 130 129 127
0.00625 1.25056 -0.51032 95 93 91
0.00198994 1.23098 -0.48185 132 130 129
0.00935993 1.23086 -0.50141 223 223 222
-0.00175013 1.22429 -0.471 204 202 201
0.00237999 1.21852 -0.48133 104 102 101
-0.00456013 1.20704 -0.45616 174 173 171
0.00609002 1.20697 -0.48132 239 238 238
-0.00220003 1.20026 -0.44521 230 230 228
0.000899889 1.19526 -0.45605 84 82 79
0.00218997 1.20308 -0.46591 109 107 105
0.00401006 1.20215 -0.4657 123 121 119
-0.000490092 1.18831 -0.44509 108 105 103
0.00243006 1.18544 -0.45532 170 169 167
-0.00863995 1.17505 -0.42469 218 217 215
-0.00689998 1.18118 -0.43507 188 187 186
-0.00485005 1.16889 -0.43476 82 77 73
-0.00160994 1.17544 -0.44488 130 127 125
-0.00696006 1.16304 -0.42474 108 104 99
0.00126991 1.16475 -0.44331 215 214 213
-0.0040101 1.15731 -0.43514 190 187 184
-0.00785007 1.15606 -0.41404 154 150 147
-0.00482001 1.15077 -0.42466 137 132 129
-0.00599994 1.14418 -0.41421 90 84 80
-0.00197997 1.13273 -0.41455 223 221 219
0.20752 1.04684 -0.0113702 221 217 214
0.20674 1.0419 -0.0320601 191 184 181
0.22016 1.04387 -0.0347201 137 124 119
0.20688 1.03527 -0.00574014 99 82 73
0.21429 1.03454 -0.02007 78 60 50
0.22681 1.0325 -0.0354101 113 98 91
0.19276 1.03233 0.03629 91 73 65
0.21199 1.02516 -0.00751016 211 207 203
0.12678 0.6083 0.0141099 149 130 122
0.11885 0.59878 0.0238497 123 106 98
0.12543 0.5947 0.0141799 54 31 21
0.0999499 0.58658 0.0410399 64 43 31
0.11864 0.58565 0.0243399 54 34 23
0.12381 0.5882 0.0143499 51 30 20
0.09278 0.57021 0.0405297 46 28 16
0.10927 0.56821 0.0231797 71 52 42
0.12183 0.57639 0.0139399 60 39 27
0.11584 0.56538 0.0331998 98 83 74
0.12512 0.5604 0.0248899 238 236 233
0.08686 1.97595 0.14113 162 153 148
0.08422 1.80342 0.13389 161 148 140
0.0798 1.8087 0.14139 92 61 46
0.08546 1.79283 0.13448 152 137 130
0.08176 1.79805 0.14255 94 61 45
0.11921 1.75848 0.11221 235 233 232
0.11046 1.76349 0.11794 144 133 128
0.10254 1.76329 0.12485 155 142 137
0.09084 1.75757 0.12689 111 91 82
0.10383 1.75476 0.12639 73 51 44
0.08385 1.74162 0.1421 87 53 37
0.0877899 1.72647 0.1459 82 49 34
0.10102 1.71162 0.13843 199 192 187
0.0957399 1.69525 0.13452 197 191 187
0.0955001 1.66731 0.14395 86 62 53
0.0903801 1.67054 0.14864 82 54 42
0.10023 1.6624 0.13497 206 202 199
0.09738 1.65617 0.14445 76 52 42
0.10269 1.65119 0.13576 197 190 186
0.0995899 1.6436 0.14491 83 57 47
0.10371 1.62012 0.14182 92 68 59
0.13446 1.59404 0.10084 172 167 164
0.13012 1.5992 0.11049 223 220 218
0.11379 1.59333 0.13263 220 215 211
0.13135 1.57849 0.10464 201 197 194
0.12661 1.58389 0.11454 71 55 47
0.11986 1.58914 0.12356 211 208 204
0.11536 1.5823 0.13148 167 156 150
0.12164 1.57784 0.12183 66 50 42
0.1179 1.57111 0.1315 68 44 34
0.11994 1.55974 0.13222 124 110 104
0.1478 1.46213 0.15345 83 50 39
0.17654 1.42058 0.13689 117 87 77
0.13384 1.11843 0.33529 175 160 158
0.1262 1.10986 0.35558 226 221 220
0.10771 1.10258 -0.0136501 148 117 105
0.11838 1.07902 0.19309 116 85 80
0.11877 1.08104 0.19674 115 83 78
0.11323 1.07438 0.20502 185 170 167
0.12311 1.06961 0.14697 226 218 215
0.12651 1.06314 0.13946 163 145 137
0.1248 1.07151 0.16544 197 185 181
0.12476 1.0713 0.16686 185 170 166
0.12095 1.06655 0.17448 133 105 99
0.11576 1.06416 0.186 236 231 229
0.12197 1.05845 0.14677 119 88 79
0.12038 1.05457 0.15543 136 107 100
0.11002 1.0594 0.16849 236 233 230
0.11426 1.05907 0.17402 239 235 233
0.1186 1.04265 0.15981 226 220 218
0.11011 1.03 0.11388 102 73 66
-0.01549 1.10305 -0.37127 98 74 69
-0.0176801 1.09775 -0.3611 150 131 128
0.58539 0.60292 0.90505 131 103 100
0.58669 0.6088 0.91553 159 133 130
0.5855 0.60607 0.90974 139 112 109
0.58398 0.60395 0.90747 128 98 95
0.58001 0.58123 0.88223 178 157 155
0.58039 0.5875 0.89281 148 120 118
0.57917 0.58137 0.90307 207 193 191
0.57094 0.54575 0.86118 176 154 152
0.57193 0.54527 0.86041 166 141 139
0.57068 0.53762 0.84287 151 124 120
0.57065 0.53764 0.84295 150 123 120
0.56866 0.53196 0.83224 156 132 130
0.56867 0.53194 0.83211 156 133 131
0.1372 0.75751 0.0611498 233 229 226
0.12946 0.76237 0.05509 226 220 217
0.18727 0.71055 0.0222499 218 206 204
0.17751 0.70501 0.02823 219 208 207
0.16669 0.70431 0.0365598 161 138 132
0.15114 0.71355 0.0480199 170 150 145
0.14286 0.7034 0.0487998 108 76 66
0.12537 0.71436 0.0568998 145 125 117
0.15853 0.69406 0.0392399 151 128 123
0.14239 0.69139 0.0482597 139 112 106
0.15147 0.69548 0.0417798 126 97 90
0.13225 0.70269 0.0554199 108 78 69
0.10828 0.6215 0.0439699 178 160 153
0.13545 0.60759 0.00467992 134 108 104
0.10557 0.60958 0.0477397 123 94 84
0.11151 0.61316 0.0405698 236 230 227
0.14067 0.59694 -0.0133402 198 183 180
0.13897 0.59999 -0.00330019 88 54 47
0.13285 0.59588 0.00674987 91 57 49
0.12767 0.60291 0.0146799 199 186 182
0.11201 0.60014 0.0442698 207 195 189
0.0946899 0.60978 0.0533199 100 70 60
0.0973099 0.60805 0.0538797 101 71 61
0.13699 0.58398 -0.00237012 125 98 92
0.14296 0.58311 -0.00957012 230 221 217
0.12456 0.59178 0.0138397 115 84 77
0.11414 0.59144 0.0342698 203 190 185
0.09494 0.59609 0.0577199 105 74 65
0.0354999 0.61051 0.11942 238 230 228
0.12907 0.57652 -0.00191021 106 75 68
0.11448 0.58429 0.0252597 119 88 78
0.10501 0.58323 0.0316398 104 73 63
0.09124 0.59091 0.0426598 107 76 65
0.0270899 0.59828 0.13037 181 158 154
0.11159 0.56664 0.0126498 111 81 72
0.10418 0.5737 0.0199799 88 58 48
0.10277 0.56814 0.0291598 85 55 45
0.1009 0.57301 0.0278699 88 58 47
0.02732 0.59158 0.12076 189 168 162
0.10955 0.56133 0.00193976 199 180 176
0.10288 0.55851 0.00937985 231 222 219
0.10798 0.56145 0.0210597 140 114 107
0.10212 0.5556 0.0306399 110 81 73
0.09352 0.56695 0.0356698 90 62 51
0.0240201 0.58451 0.10929 154 120 113
0.0345601 0.58277 0.10304 228 217 213
0.0175599 0.5804 0.11794 191 167 160
0.0270499 0.58355 0.11104 159 128 121
-0.31322 0.70651 0.19288 225 213 209
-0.43196 0.75888 0.21508 128 94 85
-0.43081 0.7588 0.21512 124 90 81
0.1047 0.54839 0.0257997 217 204 200
0.08961 0.55589 0.0380199 82 54 42
0.03171 0.5682 0.0994198 123 84 75
0.0210999 0.56728 0.1036 174 145 139
-0.26163 0.68416 0.16249 105 71 64
-0.3215 0.70364 0.20053 149 119 113
-0.38869 0.72579 0.20436 102 64 55
0.13825 0.53608 -0.10434 235 225 223
0.10388 0.53663 0.0228698 236 227 224
0.0916301 0.54336 0.0357699 95 65 54
0.00243006 0.56693 0.0971599 226 211 207
-0.0722901 0.59964 0.13447 235 222 220
-0.10639 0.6053 0.13668 230 215 211
-0.29903 0.68148 0.19193 117 80 73
