ply
format ascii 1.0
comment VCGLIB generated
element vertex 1028
property float x
property float y
property float z
property uchar red
property uchar green
property uchar blue
property uchar alpha
element face 0
property list uchar int vertex_indices
end_header
-0.5003501 0.9084599 0.2383998 254 255 254 255 
-0.4751 0.8956999 0.2432998 230 224 222 255 
-0.5096599 0.9121399 0.22677 254 254 254 255 
-0.61031 0.9429399 0.1225398 254 255 254 255 
-0.4178001 0.8568399 0.22837 255 255 255 255 
-0.4158501 0.8554299 0.2330699 255 255 255 255 
-0.6000799 0.9183999 0.1455298 254 255 254 255 
0.19126 0.7222599 0.03220987 190 173 169 255 
-0.61316 0.9077898 0.16359 117 91 86 255 
-0.58857 0.8908799 0.1659098 228 224 222 255 
-0.3986601 0.8213398 0.2044699 243 241 240 255 
-0.4065301 0.8172799 0.2131798 220 216 214 255 
-0.41911 0.8247899 0.2217398 254 254 254 255 
-0.49921 0.8441299 0.2250898 254 254 254 255 
-0.55152 0.8619798 0.1838498 240 236 236 255 
-0.57258 0.8710499 0.1754398 174 159 156 255 
0.08856998 0.7166098 0.05314995 92 66 56 255 
-0.50504 0.8333099 0.2244198 247 246 246 255 
0.2183801 0.6820599 0.009919882 254 255 254 255 
-0.5110799 0.8114699 0.2223799 116 79 73 255 
-0.58612 0.8376399 0.19537 253 254 254 255 
0.08975992 0.6750898 0.04439974 91 65 56 255 
-0.5266701 0.8130199 0.2180698 100 68 61 255 
-0.3175401 0.7470499 0.1841698 254 255 254 255 
-0.3197099 0.7484099 0.1810498 254 255 254 255 
-0.3116201 0.7262499 0.2096298 255 255 254 255 
0.07878003 0.6420099 0.05207992 77 54 47 255 
-0.39244 0.7351099 0.2091198 120 82 74 255 
-0.3052701 0.7145599 0.1881998 250 249 247 255 
-0.3972401 0.7248799 0.2119799 146 120 113 255 
-0.47775 0.7483399 0.2122598 254 254 254 255 
-0.5561401 0.7837499 0.1781199 255 255 255 255 
0.0798801 0.6157999 0.0624299 94 64 54 255 
-0.2102901 0.6705399 0.1801598 254 254 254 255 
-0.3932799 0.7154299 0.2075398 127 94 88 255 
0.0846201 0.6073799 0.05911993 102 74 66 255 
-0.2543801 0.6806198 0.1477599 251 248 247 255 
-0.26623 0.6798799 0.1781797 120 89 84 255 
0.05516992 0.6044099 0.06624984 157 130 120 255 
-0.1957699 0.6457399 0.1788998 250 248 247 255 
-0.4218301 0.6918099 0.21064 254 255 254 255 
-0.06455006 0.5913899 0.1328099 254 254 253 255 
-0.26987 0.6468999 0.1838398 251 250 248 255 
-0.4218201 0.6825099 0.2002199 255 255 255 255 
-0.07545009 0.5850999 0.1301599 211 197 193 255 
-0.0788001 0.5894599 0.1331599 230 221 218 255 
-0.4100401 0.6746699 0.1981399 255 255 255 255 
-0.4370801 0.6832199 0.1874599 255 255 255 255 
-0.4510001 0.6884799 0.1788797 255 255 255 255 
-0.45424 0.6885399 0.19361 255 255 255 255 
-0.24848 0.6182098 0.1707997 255 255 255 255 
-0.2459001 0.6113598 0.1617799 255 255 255 255 
-0.25393 0.6067199 0.1746597 255 255 255 255 
0.06746993 0.5111599 0.06201981 73 46 37 255 
-0.1083201 0.5600299 0.1135399 254 254 254 255 
-0.1346301 0.5515699 0.1022999 255 255 255 255 
0.1204301 0.5127199 -0.07950021 255 255 255 255 
0.004380085 0.5195299 0.04222988 253 254 252 255 
0.01280008 0.5069399 0.07404993 254 254 253 255 
-0.004059933 0.5096599 0.07215975 254 255 254 255 
-0.01043 0.5052099 0.08267973 255 255 255 255 
-0.04682007 0.5291299 0.06799983 255 255 254 255 
-0.03260007 0.5210599 0.07828973 254 255 254 255 
-0.03694 0.5215299 0.07707976 254 255 254 255 
-0.04528012 0.5212299 0.08090971 255 255 254 255 
-0.09853997 0.5285999 0.1208198 255 255 255 255 
-0.09853997 0.5285999 0.1208198 255 255 255 255 
0.04934988 0.4881098 0.06002973 126 94 88 255 
0.03237996 0.4895899 0.05717991 249 246 246 255 
0.03258 0.4892499 0.0576198 250 247 247 255 
0.01536999 0.4902298 0.05979989 254 254 254 255 
0.008750059 0.5034499 0.05743979 255 254 254 255 
0.003539898 0.4975699 0.07071994 254 255 254 255 
-0.01831999 0.5015498 0.09259985 254 255 254 255 
0.10986 0.4683399 0.01400994 255 255 254 255 
0.002899982 0.4818798 0.04942988 255 255 255 255 
0.17353 0.4065799 0.06910989 255 255 255 255 
0.1638399 0.4016699 0.07325981 255 255 254 255 
0.16305 0.4091198 0.08065984 255 255 254 255 
0.1602701 0.3946199 0.08396981 253 253 253 255 
0.14162 0.3980899 0.07544992 235 229 227 255 
0.09263001 0.2875899 0.002779692 187 145 137 255 
0.1515699 0.2450598 0.02991983 190 150 145 255 
0.13793 0.2502099 0.03281972 188 144 139 255 
0.1327101 0.2496899 0.03711983 196 158 152 255 
0.07292996 0.2841699 0.01880977 139 101 90 255 
0.12407 0.2498499 0.03529974 185 147 140 255 
0.11212 0.2492299 0.03294989 168 128 119 255 
0.08410988 0.2653099 0.02555987 159 121 110 255 
0.09443007 0.2490399 0.02875993 170 131 119 255 
0.1277901 0.2147999 0.02601977 192 165 159 255 
0.08792005 0.2337298 0.03655978 122 88 78 255 
0.1167999 0.2028599 0.01766987 163 130 122 255 
0.1073099 0.2001199 0.0248899 108 75 66 255 
0.04864988 1.85895 0.1403299 92 81 75 255 
0.02193008 1.848027 0.1283799 255 255 254 255 
0.04194007 1.808667 0.1472798 254 255 255 255 
0.0389 1.736611 0.1465 254 255 254 255 
0.04130993 1.679348 0.1452499 65 57 53 255 
0.03678999 1.669628 0.14269 202 200 197 255 
0.04056988 1.669128 0.1473299 200 197 194 255 
0.04937992 1.669419 0.14774 145 140 137 255 
0.05108986 1.66921 0.14967 135 129 125 255 
0.02690993 1.660141 0.13739 247 246 245 255 
0.03071008 1.659725 0.1406399 244 243 242 255 
0.03105006 1.659713 0.14072 244 243 242 255 
0.06658993 1.648422 0.1543699 200 196 192 255 
0.04064999 1.648773 0.14866 254 254 254 255 
0.04090009 1.648706 0.1492599 254 254 254 255 
0.02600989 1.649214 0.14196 255 255 254 255 
0.02665005 1.64916 0.14228 255 255 254 255 
0.1304799 1.470609 0.1620799 83 55 41 255 
0.2077399 1.452271 0.1404699 255 255 254 255 
0.09702001 1.441539 0.1508499 254 254 253 255 
0.20796 1.397898 0.14072 240 239 237 255 
0.1984299 1.397529 0.1397398 214 208 206 255 
0.2138399 1.387923 0.1420699 253 253 252 255 
0.2196299 1.37799 0.14339 254 254 254 255 
0.20919 1.377847 0.14112 251 250 250 255 
0.2052301 1.387333 0.14214 251 250 249 255 
0.1936201 1.387568 0.1379898 145 136 131 255 
0.21445 1.367975 0.1420799 253 253 253 255 
0.21449 1.368011 0.1417199 253 253 253 255 
0.22569 1.367917 0.1456099 254 255 254 255 
0.19865 1.377708 0.13899 222 219 216 255 
0.20379 1.367824 0.1401299 238 237 235 255 
0.2075699 1.366971 0.14355 222 220 218 255 
0.2043301 1.367776 0.14004 239 238 236 255 
0.2038399 1.367905 0.1392398 236 235 233 255 
0.1885699 1.377463 0.13704 118 104 99 255 
0.17761 1.37747 0.1334699 76 54 46 255 
0.2133199 1.356976 0.1459499 254 254 254 255 
0.2134899 1.356969 0.1455699 254 254 254 255 
0.2237299 1.357111 0.14794 254 255 254 255 
0.2199701 1.358109 0.14283 254 254 254 255 
0.2026499 1.357007 0.1421798 239 238 236 255 
0.2024001 1.356974 0.1426399 238 237 235 255 
0.2022 1.357067 0.14164 238 237 235 255 
0.1931799 1.36775 0.1371699 180 172 169 255 
0.18657 1.366704 0.13863 106 91 84 255 
0.19164 1.356938 0.1394599 171 163 159 255 
0.1911601 1.357052 0.13901 165 156 153 255 
0.1812399 1.35682 0.1365698 84 65 57 255 
0.22253 1.338116 0.1402698 254 255 255 255 
0.2148899 1.337227 0.1413398 255 255 254 255 
0.2047001 1.336077 0.1420599 252 253 252 255 
0.20461 1.336183 0.1422399 229 228 227 255 
0.2072199 1.335553 0.14478 254 254 254 255 
0.21027 1.326303 0.1432999 250 250 250 255 
0.2171601 1.327409 0.1421199 255 255 254 255 
0.1994101 1.326272 0.14023 214 211 209 255 
0.18865 1.326204 0.13724 169 161 157 255 
0.20481 1.316344 0.14146 254 254 254 255 
0.1885301 1.308399 0.1320999 173 166 162 255 
0.1523601 1.3127 0.1415299 64 42 34 255 
0.1944099 1.298627 0.1325 222 219 217 255 
0.8533899 1.161635 0.04243998 254 255 254 255 
0.8467299 1.150699 0.03706984 255 255 255 255 
0.2495399 1.193619 0.14478 255 255 255 255 
0.24361 1.191894 0.14831 254 255 254 255 
0.24306 1.188489 0.1579998 254 255 254 255 
0.2386399 1.190781 0.1534198 254 255 254 255 
0.7473298 1.133231 0.03930978 254 254 254 255 
0.7459799 1.142021 0.04299979 254 254 253 255 
0.24902 1.181994 0.1489299 255 255 254 255 
0.1437601 1.195854 0.1244998 95 68 59 255 
0.75058 1.123931 0.03738979 253 253 252 255 
0.7411901 1.123327 0.03925995 254 254 254 255 
0.2708801 1.165366 0.1502598 255 255 254 255 
0.26311 1.161909 0.1584599 255 255 255 255 
0.2538899 1.172275 0.1489399 254 255 255 255 
0.2350601 1.1698 0.1493898 251 250 249 255 
0.13548 1.187821 0.1161399 97 74 66 255 
0.11723 1.190652 0.1157999 207 199 195 255 
0.1037401 1.190276 0.1150699 244 242 240 255 
0.02210007 1.210467 0.06552988 254 254 254 255 
0.7393099 1.112427 0.04239992 254 254 254 255 
0.7300998 1.108652 0.04631976 254 255 255 255 
0.26008 1.148713 0.1503299 254 255 254 255 
0.1429499 1.178359 0.1172998 85 61 52 255 
0.02971993 1.200268 0.06468992 254 255 254 255 
0.7090799 1.101342 0.03111987 254 255 255 255 
0.2068001 1.159494 0.1055799 231 228 226 255 
0.03849993 1.19019 0.06535988 254 254 254 255 
0.03928003 1.190104 0.0658298 254 254 254 255 
0.02638993 1.190271 0.06273989 248 249 247 255 
0.7883698 1.085008 0.02296977 255 255 255 255 
0.19148 1.151571 0.09573989 127 101 94 255 
0.20882 1.149884 0.1046999 171 155 150 255 
0.1866899 1.148959 0.1020098 111 83 75 255 
0.7727901 1.070295 0.04193977 254 254 254 255 
0.2313701 1.119959 0.1362098 128 111 105 255 
0.22744 1.128947 0.1383698 89 61 51 255 
0.1803699 1.138104 0.1025799 96 69 60 255 
0.19745 1.131928 0.1207898 99 71 61 255 
0.17654 1.135053 0.1094199 88 61 52 255 
0.17654 1.135053 0.1094199 88 61 52 255 
0.1780101 1.130072 0.1224399 90 65 55 255 
0.69903 1.065355 0.04898981 247 246 245 255 
0.6980201 1.065114 0.04978994 248 247 245 255 
0.2389499 1.110513 0.1343298 237 235 233 255 
0.23872 1.110424 0.1354099 237 235 233 255 
0.2211801 1.119697 0.1338098 96 75 66 255 
0.1738199 1.122572 0.1149998 91 64 55 255 
0.2333699 1.100955 0.1315799 253 254 253 255 
0.7105399 1.03381 0.009789973 254 255 255 255 
0.7098299 1.00857 0.05990985 254 255 254 255 
0.6804 0.9813299 0.05188993 254 255 254 255 
0.6707002 0.9713999 0.05163983 255 255 255 255 
0.5791198 0.9586999 0.0777798 111 84 78 255 
0.5830799 0.9699899 0.07565978 199 189 185 255 
0.5759002 0.9682099 0.08236983 220 214 212 255 
0.5632402 0.9662999 0.08630994 213 205 202 255 
0.6337 0.9470599 0.05295994 254 255 254 255 
0.5893198 0.9480499 0.0699599 230 224 222 255 
0.58979 0.9470298 0.06871989 248 246 244 255 
0.5959598 0.9465399 0.07050993 252 251 250 255 
0.5544802 0.9480898 0.08330991 85 54 47 255 
0.6014301 0.9394499 0.05207994 254 255 254 255 
0.6014301 0.9394499 0.05207994 254 255 254 255 
0.6014301 0.9394499 0.05207994 254 255 254 255 
0.5963498 0.9371098 0.06427982 254 255 254 255 
0.5924498 0.9376498 0.06289985 254 255 254 255 
0.57752 0.9391099 0.06513979 253 253 253 255 
0.5621401 0.9446399 0.06641986 186 172 169 255 
0.5550801 0.9378399 0.08221986 190 176 174 255 
0.5215598 0.9517599 0.06686976 106 73 68 255 
0.5138599 0.9498199 0.07322981 111 80 73 255 
0.5928499 0.9297498 0.04977991 255 255 254 255 
0.5886098 0.9249599 0.06748988 255 255 254 255 
0.5702502 0.9316199 0.06597998 254 254 254 255 
0.5625702 0.9266698 0.06394985 254 254 254 255 
0.5598298 0.9276999 0.07578995 254 253 254 255 
0.5432998 0.9296598 0.06940987 254 254 254 255 
0.5302001 0.9300898 0.06823995 254 254 254 255 
0.53608 0.9323099 0.07931998 246 244 243 255 
0.5154001 0.9396499 0.07077982 196 183 181 255 
0.5777398 0.9115999 0.06199982 255 255 255 255 
0.5927101 0.9143599 0.06188991 255 255 255 255 
0.5677201 0.9163098 0.06535985 255 255 255 255 
0.5702201 0.9228399 0.05732992 255 255 255 255 
0.5636898 0.9174399 0.05645993 255 255 255 255 
0.5457398 0.9218498 0.06297996 255 255 254 255 
0.5344702 0.9218398 0.06164982 255 255 254 255 
0.52698 0.9201798 0.06545975 255 255 254 255 
0.5193402 0.9298699 0.06805994 253 252 251 255 
0.5243999 0.9190899 0.04123976 255 255 254 255 
0.5570298 0.9106799 0.06510975 255 255 255 255 
0.5265099 0.9182799 0.0432699 255 255 254 255 
0.5265099 0.9182799 0.0432699 255 255 254 255 
0.5238901 0.9147599 0.05172994 255 255 254 255 
0.3058101 0.9454799 0.09720996 255 255 255 255 
0.07672987 0.9745399 0.09465984 255 254 254 255 
0.1441899 0.9512799 0.1040299 91 60 52 255 
0.06506 0.9665999 0.08577994 254 255 254 255 
0.1603099 0.9387898 0.1202598 223 217 215 255 
0.06626997 0.9581099 0.0812898 254 254 254 255 
0.1457599 0.9329399 0.10705 86 55 47 255 
0.07068 0.9468499 0.07042982 220 213 211 255 
0.1106099 0.9278299 0.09062984 96 63 54 255 
-0.6274201 1.02608 0.1402998 255 255 255 255 
0.1192499 0.9033198 0.09309985 90 61 52 255 
0.11718 0.8988999 0.1048999 90 60 50 255 
0.17847 0.8693999 0.1266999 142 119 113 255 
0.1143299 0.8894399 0.1004698 87 57 49 255 
-0.52679 0.9707599 0.2252598 254 254 254 255 
0.5621401 0.5936098 0.9672599 255 255 255 255 
-0.5414799 0.9578599 0.22853 254 255 255 255 
0.1136299 0.8638699 0.08093978 87 57 47 255 
-0.51394 0.9321799 0.23627 254 254 254 255 
-0.67667 0.9941999 0.1173699 252 251 251 255 
-0.66936 0.9819599 0.1231299 253 252 252 255 
-0.6786 0.9805499 0.1210299 254 254 254 255 
-0.68949 0.9802499 0.1155498 255 255 255 255 
-0.42263 0.8903399 0.2376399 254 255 255 255 
-0.6730901 0.9695799 0.1227598 254 254 254 255 
-0.66072 0.9697199 0.1285599 243 241 239 255 
-0.6836101 0.9689798 0.1183098 254 255 254 255 
-0.6739401 0.9554099 0.12742 255 255 254 255 
0.09996996 0.8069199 0.08126976 107 70 62 255 
-0.66426 0.9415098 0.13761 254 255 254 255 
-0.65493 0.9359899 0.1530698 254 254 255 255 
-0.42425 0.8677399 0.23029 254 255 254 255 
-0.5732599 0.9088299 0.1727498 254 255 254 255 
-0.65846 0.9301399 0.1404598 254 255 254 255 
-0.6042501 0.9008598 0.1622198 101 72 69 255 
-0.5101701 0.8420099 0.2293499 254 254 253 255 
0.19952 0.7454499 0.04666973 254 255 254 255 
-0.57596 0.8516899 0.1918798 171 156 152 255 
0.2089499 0.7197599 0.009849787 171 147 144 255 
-0.5682999 0.8375399 0.19834 180 167 163 255 
-0.57838 0.8233299 0.2017799 249 248 246 255 
-0.3009001 0.7190698 0.21029 254 254 254 255 
-0.3009001 0.7190698 0.21029 254 254 254 255 
-0.5703701 0.7830199 0.1908398 255 255 255 255 
-0.5767399 0.7848998 0.1786399 255 255 254 255 
0.1342801 0.6628799 0.04070973 254 254 253 255 
-0.44897 0.7361099 0.2108798 254 254 254 255 
-0.4617001 0.7360799 0.2109098 254 254 254 255 
-0.4715101 0.7383798 0.2143099 254 255 254 255 
-0.56278 0.7696999 0.1968498 255 255 255 255 
-0.58382 0.7824498 0.1772399 255 255 255 255 
-0.59136 0.7781199 0.1986699 255 255 254 255 
-0.2712499 0.7146798 0.1280398 173 153 148 255 
-0.4447199 0.7240199 0.2235398 239 234 233 255 
0.07325993 0.6255599 0.06249976 95 69 60 255 
0.05841003 0.6295699 0.06760979 110 79 70 255 
-0.1389 0.6442599 0.1495998 255 254 255 255 
0.06414995 0.6054699 0.06912994 117 83 72 255 
-0.09930005 0.6263599 0.1391599 255 255 254 255 
-0.25741 0.6509699 0.1850297 181 162 157 255 
0.06093989 0.5952699 0.06447982 134 100 91 255 
-0.33946 0.6486099 0.1937699 255 255 255 255 
-0.37895 0.6625099 0.1779099 255 255 255 255 
0.05707989 0.5851699 0.06008982 122 86 75 255 
-0.3038301 0.6353599 0.1848898 254 255 254 255 
-0.06297006 0.5809499 0.1249299 215 203 199 255 
-0.0877501 0.5891899 0.1350398 200 182 178 255 
-0.26869 0.6063199 0.1747098 255 255 255 255 
-0.1607 0.5619498 0.1305699 254 255 254 255 
-0.06108012 0.5184799 0.1384199 255 255 255 255 
0.09336004 0.4993099 0.02561973 241 235 232 255 
0.03946004 0.5019399 0.05741976 194 177 171 255 
0.17915 0.4169999 0.07337973 255 255 255 255 
0.1537999 0.4063098 0.08348987 254 254 253 255 
0.1487199 0.3932799 0.08400986 251 251 250 255 
0.15145 0.3837599 0.07290981 254 254 254 255 
0.1299001 0.2383399 0.02711985 186 146 139 255 
0.11987 0.2299199 0.02358982 148 108 99 255 
0.11266 0.2267399 0.03368969 107 67 59 255 
0.05342994 1.870189 0.13386 73 55 51 255 
0.1192699 1.443765 0.1470099 213 208 205 255 
0.10108 1.453061 0.1455 254 254 253 255 
0.1086701 1.443629 0.1436899 244 243 242 255 
0.22358 1.388236 0.14353 254 255 254 255 
0.2257999 1.387708 0.1460698 254 255 254 255 
0.1783601 1.297908 0.1467698 114 97 91 255 
0.2631501 1.201116 0.1564298 255 255 255 255 
0.77273 1.134884 0.04474978 234 231 229 255 
0.7644998 1.127393 0.04326992 246 244 243 255 
0.2548901 1.183689 0.1462198 255 255 255 255 
0.1258 1.180614 0.1154998 135 119 113 255 
0.7025501 1.01123 0.05437997 254 254 254 255 
0.6067301 0.9134899 0.05760982 255 255 255 255 
0.58313 0.9137598 0.0696099 255 255 255 255 
0.3678099 0.7141099 0.4488199 255 255 255 255 
0.35771 0.6929599 0.4408698 255 255 255 255 
0.3513099 0.6827699 0.4359398 255 255 255 255 
0.3442799 0.6805599 0.4367398 255 255 255 255 
-0.69517 0.9690799 0.1116798 255 255 255 255 
0.2149199 0.6824598 0.3172299 254 255 254 255 
0.2667499 0.6817199 -0.01940012 254 255 255 255 
-0.4944901 0.7501699 0.2043397 255 255 255 255 
-0.5609201 0.7774999 0.15989 255 255 255 255 
0.02914009 0.3567299 -0.07380012 243 234 232 255 
0.1232401 1.452361 0.15075 128 115 108 255 
0.2186399 1.397993 0.1432398 254 255 254 255 
0.26172 1.189676 0.1591499 255 255 255 255 
0.8150202 1.112604 0.04460982 255 255 254 255 
0.2428599 1.102413 0.1281398 254 255 254 255 
0.22767 1.110461 0.1320599 208 203 199 255 
0.73061 1.03522 0.04991987 254 255 254 255 
0.7206699 1.0219 0.05711988 255 254 254 255 
0.4482199 1.00351 0.1142299 255 255 255 255 
0.43656 1.00393 0.1160598 254 255 254 255 
0.6630198 0.9584099 0.05070975 255 255 255 255 
0.55783 0.9111999 0.04122975 255 255 255 255 
0.0993999 0.8647999 0.07567979 188 174 170 255 
0.3713199 0.7254299 0.4508698 255 255 255 255 
0.37792 0.7150499 0.4495099 255 255 255 255 
0.3711201 0.6995499 0.4548799 255 255 255 255 
-0.6606799 0.9356799 0.1494699 255 255 255 255 
0.3635899 0.6827198 0.4390799 255 255 255 255 
-0.31727 0.6348699 0.1850498 254 255 254 255 
0.1225699 1.941126 0.2089199 255 255 255 255 
0.08953986 1.882493 0.1911598 255 255 254 255 
0.08886991 1.888341 0.1817499 227 227 226 255 
0.09682999 1.883567 0.1729499 140 135 131 255 
0.08557997 1.876829 0.18268 236 235 234 255 
0.08409009 1.871073 0.1736098 170 165 162 255 
0.09662995 1.866443 0.1949199 255 255 255 255 
0.08174 1.85965 0.1745199 153 147 143 255 
0.08123002 1.859998 0.1723999 122 114 109 255 
0.09516988 1.854914 0.19513 255 255 255 255 
0.08426986 1.854034 0.1823798 245 244 243 255 
0.08225999 1.854446 0.1809898 229 228 227 255 
0.1095799 1.853985 0.1265999 254 254 254 255 
0.08847008 1.848399 0.19057 254 255 254 255 
0.09633002 1.843241 0.1941999 255 255 255 255 
0.08362994 1.842104 0.1836699 251 251 250 255 
0.08019004 1.848594 0.1731299 138 129 125 255 
0.07864008 1.841843 0.1669999 62 46 38 255 
0.09304009 1.831324 0.2022298 255 255 255 255 
0.08058009 1.836155 0.17601 194 189 186 255 
0.07493005 1.829173 0.17935 186 180 176 255 
0.09435997 1.820211 0.1992899 255 255 255 255 
0.07659993 1.82398 0.18412 233 231 229 255 
0.07912002 1.818495 0.1723798 120 108 100 255 
0.08878002 1.81347 0.1970299 255 255 255 255 
0.08125005 1.812924 0.1810599 230 228 225 255 
0.1050299 1.812339 0.1348001 250 251 249 255 
0.08444009 1.80711 0.1902701 255 255 254 255 
0.12122 1.801818 0.1265999 227 227 225 255 
0.10811 1.749778 0.19497 255 255 255 255 
0.10102 1.754778 0.18742 255 254 254 255 
0.10701 1.737747 0.1945098 255 255 254 255 
0.10172 1.743313 0.1873799 254 255 254 255 
0.09589992 1.737136 0.1799298 250 249 248 255 
0.1071199 1.726942 0.2008499 255 255 255 255 
0.1002499 1.731645 0.1867 254 255 254 255 
0.09840999 1.73142 0.1866198 254 255 254 255 
0.09440003 1.725507 0.1792198 249 249 248 255 
0.08974991 1.731064 0.17181 165 158 151 255 
0.1081599 1.725822 0.1947499 254 255 255 255 
0.1017099 1.720213 0.18729 255 255 254 255 
0.1206101 1.721375 0.1916099 255 255 254 255 
0.1086601 1.714582 0.1947099 254 255 255 255 
0.10072 1.714477 0.1813599 252 252 251 255 
0.10208 1.708705 0.1871599 254 255 254 255 
0.1042801 1.70869 0.1833099 253 253 252 255 
0.1069599 1.708685 0.18886 254 255 254 255 
0.1045099 1.696909 0.1859899 254 254 253 255 
0.11809 1.704468 0.18621 250 250 249 255 
0.1090699 1.691293 0.1955899 255 255 255 255 
0.10474 1.685359 0.1866799 254 255 254 255 
0.09703002 1.678452 0.1844898 254 254 254 255 
0.10372 1.667078 0.20432 255 255 254 255 
0.10174 1.672797 0.1945899 255 255 254 255 
0.09919009 1.666679 0.18672 254 254 254 255 
0.1095501 1.66271 0.2050699 255 255 254 255 
0.13443 1.664065 0.14897 158 147 138 255 
0.11002 1.651196 0.20588 255 255 254 255 
0.10681 1.644233 0.18955 250 250 250 255 
0.09935007 1.650461 0.18515 243 243 241 255 
0.1239499 1.640805 0.1982599 255 255 255 255 
0.1197599 1.634032 0.2045499 255 255 255 255 
0.10489 1.638472 0.17798 210 207 205 255 
0.1076599 1.638578 0.1799 231 230 229 255 
0.1127699 1.633618 0.19109 254 254 254 255 
0.1072999 1.631827 0.13807 254 254 252 255 
0.1149 1.622302 0.19079 254 255 254 255 
0.1091801 1.627241 0.18231 237 236 235 255 
0.1237999 1.606339 0.1982299 255 255 254 255 
0.1165401 1.610926 0.19079 255 255 254 255 
0.11336 1.593415 0.1981798 255 255 254 255 
0.1184701 1.599596 0.19079 255 255 254 255 
0.1180199 1.60021 0.1892699 254 254 254 255 
0.1072999 1.592766 0.1768399 191 185 181 255 
0.10734 1.592651 0.1764999 181 174 169 255 
0.1092099 1.581487 0.17639 180 173 168 255 
0.1092499 1.581417 0.1770399 187 181 176 255 
0.1125499 1.570456 0.1762498 189 183 179 255 
0.1113599 1.575847 0.16687 88 71 59 255 
0.11634 1.558599 0.19922 254 255 254 255 
0.11404 1.564105 0.18831 253 253 252 255 
0.1149999 1.558341 0.1785298 193 188 185 255 
0.11384 1.564704 0.1666098 75 57 44 255 
0.1111201 1.558222 0.1589499 61 39 23 255 
0.1202301 1.553082 0.1873198 249 249 248 255 
0.1173099 1.551642 0.1686898 80 63 53 255 
0.12003 1.546591 0.17727 177 171 167 255 
0.1207701 1.540368 0.1688898 84 66 57 255 
0.1133901 1.545073 0.1574798 63 40 25 255 
0.1372801 1.537842 0.19939 255 255 255 255 
0.13304 1.530975 0.1870199 254 254 253 255 
0.13473 1.531494 0.19026 254 255 254 255 
0.1244899 1.535441 0.17781 197 191 188 255 
0.1223699 1.529251 0.1701799 90 74 65 255 
0.1357599 1.520082 0.18742 253 254 253 255 
0.1259299 1.524118 0.1776799 184 179 174 255 
0.1234199 1.51779 0.1698499 84 67 57 255 
0.1196099 1.522864 0.16196 74 50 37 255 
0.14351 1.515772 0.19498 254 255 254 255 
0.1325899 1.508142 0.18548 251 250 250 255 
0.1267 1.512622 0.17746 163 155 151 255 
0.1273499 1.506576 0.1706899 86 69 60 255 
0.1406299 1.498389 0.2003799 254 254 254 255 
0.1392599 1.50377 0.19377 254 255 254 255 
0.16565 1.488343 0.1302698 255 255 254 255 
0.17021 1.47723 0.13037 254 254 254 255 
0.1746899 1.465868 0.1299599 254 254 254 255 
0.20058 1.437262 0.113 254 255 254 255 
0.1963099 1.418647 0.1188 250 250 249 255 
0.2024299 1.42563 0.1123999 254 255 253 255 
0.2031001 1.411916 0.1201399 246 245 244 255 
0.21081 1.398293 0.1184099 254 255 254 255 
0.01527987 1.333508 -0.52463 255 255 255 255 
0.008390047 1.334567 -0.5449101 255 255 255 255 
0.00701008 1.328544 -0.5498602 255 255 255 255 
-0.006179951 1.317003 -0.5169701 255 255 255 255 
0.01176987 1.317691 -0.5510401 201 200 199 255 
0.01006994 1.311333 -0.5397701 226 225 223 255 
0.11671 1.341994 0.09121996 255 255 254 255 
0.02510986 1.295786 -0.5732102 255 255 255 255 
0.02083001 1.282276 -0.5690801 255 255 255 255 
0.12718 1.307755 0.09709984 255 255 254 255 
0.1200501 1.300069 0.09392983 255 255 254 255 
0.1130799 1.304403 0.08349997 255 255 255 255 
-0.007959984 1.248929 -0.4350302 255 255 255 255 
-0.009990118 1.243021 -0.4555301 255 255 255 255 
-0.005619906 1.247916 -0.4702601 254 255 254 255 
0.00389991 1.243024 -0.5012302 85 84 83 255 
0.003889896 1.250134 -0.4894201 240 239 238 255 
0.03274999 1.24857 -0.54587 255 255 255 255 
0.1101099 1.292119 0.08158999 255 255 255 255 
-0.01820006 1.233723 -0.43108 255 255 255 255 
0.0003500953 1.24323 -0.4822702 245 244 243 255 
0.00460992 1.237633 -0.4910602 97 94 92 255 
-0.0138401 1.222986 -0.4246301 255 255 255 255 
-0.01680007 1.228127 -0.4354202 255 255 255 255 
-0.01220002 1.223269 -0.4460301 255 255 255 255 
-0.00697007 1.22984 -0.4606802 254 254 254 255 
0.00430999 1.225293 -0.49112 136 135 133 255 
0.02627001 1.23256 -0.5344302 255 255 255 255 
-0.01035991 1.217492 -0.4343001 255 255 255 255 
-0.006430052 1.19365 -0.4353601 252 252 251 255 
0.02684007 1.193977 -0.5123002 255 255 255 255 
0.02807007 1.192106 -0.5299401 255 255 255 255 
-0.6727201 1.081822 0.1446398 255 255 255 255 
-0.6945399 1.07083 0.05232982 255 255 255 255 
0.02087007 1.186189 -0.50058 255 255 255 255 
-0.6665 1.076744 0.1493399 255 255 255 255 
0.1938101 1.243493 0.1701498 216 214 212 255 
-0.004429959 1.168965 -0.3931102 255 255 255 255 
-0.006859921 1.169968 -0.4153902 233 231 230 255 
-0.68147 1.052857 0.06104998 255 255 255 255 
0.1905199 1.22558 0.1562 125 113 107 255 
-0.005740069 1.162693 -0.3821501 255 255 255 255 
-0.007450007 1.155929 -0.3934402 244 244 244 255 
0.005299903 1.153272 -0.3656 255 255 255 255 
-0.007379912 1.143967 -0.39313 223 221 219 255 
-0.007640027 1.150007 -0.4036002 208 206 203 255 
0.01612005 1.143601 -0.4612102 255 255 255 255 
-0.0161201 1.132422 -0.3171 255 255 255 255 
0.0091599 1.143665 -0.3561601 255 255 254 255 
-0.006379984 1.137992 -0.4040601 69 63 59 255 
-0.004740141 1.132125 -0.4141302 226 224 222 255 
0.008509971 1.134622 -0.2958202 255 255 254 255 
-0.006640099 1.127952 -0.30746 255 255 255 255 
-0.005720042 1.124032 -0.3221502 255 255 255 255 
0.001959898 1.130651 -0.3393702 254 254 254 255 
0.03427992 1.137535 -0.3472802 251 251 251 255 
-0.0004500374 1.130831 -0.35523 254 254 254 255 
0.0007899776 1.122271 -0.3697602 112 108 103 255 
0.002819873 1.128083 -0.38085 92 88 82 255 
-0.003070019 1.12649 -0.4046401 190 187 184 255 
-0.001870058 1.120618 -0.39437 129 124 120 255 
-0.002540015 1.120565 -0.4151801 254 254 254 255 
-0.006830119 1.118969 -0.41314 254 254 254 255 
-0.009220026 1.125136 -0.42296 254 254 254 255 
-0.006359957 1.121161 -0.4354202 255 255 254 255 
0.16511 1.161859 -0.1267101 255 255 255 255 
0.14774 1.155942 -0.1526501 255 255 255 255 
0.1569599 1.158411 -0.1600902 255 255 255 255 
0.01292 1.128393 -0.2622301 237 234 233 255 
0.01318989 1.12309 -0.2944302 254 255 254 255 
0.00430999 1.119692 -0.31273 253 253 253 255 
0.01797996 1.118188 -0.30623 239 238 236 255 
0.01016007 1.120416 -0.33992 229 227 226 255 
0.006539918 1.112038 -0.36893 68 55 48 255 
-0.002410077 1.116047 -0.37942 53 47 40 255 
0.002430059 1.109904 -0.3937101 242 242 240 255 
-9.002537e-05 1.115017 -0.40545 250 250 250 255 
0.002639867 1.116171 -0.4030301 252 252 252 255 
0.00934992 1.111481 -0.4128901 254 255 254 255 
0.002080061 1.109405 -0.4155802 255 255 254 255 
-0.001439951 1.11453 -0.4254002 255 255 255 255 
0.001849987 1.115195 -0.4241802 255 255 255 255 
0.1193601 1.144365 -0.0213501 255 255 255 255 
0.1836 1.160356 -0.07992001 255 255 255 255 
0.17442 1.159555 -0.09909007 255 255 255 255 
0.1637801 1.156824 -0.1145801 255 255 254 255 
0.16233 1.149629 -0.1264102 255 255 254 255 
0.15761 1.145105 -0.1382401 255 254 254 255 
0.16289 1.154472 -0.1386602 255 255 255 255 
0.15564 1.146856 -0.1595602 255 254 254 255 
0.03168998 1.11359 -0.27428 178 173 169 255 
0.02008996 1.112104 -0.2939701 193 188 185 255 
0.02759991 1.108333 -0.2827701 111 102 97 255 
0.01917992 1.112779 -0.29534 206 202 199 255 
0.01978002 1.106815 -0.3053901 103 88 83 255 
0.02087007 1.112815 -0.3172102 159 150 146 255 
-0.006549977 1.097174 -0.3715901 194 191 188 255 
0.002289869 1.10434 -0.3847901 204 202 199 255 
-0.0009700283 1.102369 -0.4036302 254 254 254 255 
0.002199985 1.097517 -0.3931102 250 250 249 255 
0.006709911 1.098587 -0.4097401 255 255 255 255 
0.001750089 1.102836 -0.4241702 255 255 255 255 
0.07109008 1.12788 0.01950984 255 255 255 255 
0.1090101 1.135531 -0.005500033 255 255 255 255 
0.1090001 1.135527 -0.00549002 255 255 255 255 
0.1127101 1.141882 0.0001299828 255 255 255 255 
0.1144601 1.142966 -0.01597019 255 255 255 255 
0.1167401 1.13795 -0.02751012 255 255 255 255 
0.1598199 1.141003 -0.11468 253 254 253 255 
0.1561099 1.13673 -0.1263802 244 244 242 255 
0.02992997 1.101556 -0.2744701 118 104 100 255 
0.02393994 1.095827 -0.2832801 177 171 167 255 
0.01678 1.094621 -0.3054902 204 201 198 255 
0.001589872 1.091185 -0.3821601 254 254 254 255 
0.002479888 1.085133 -0.39315 255 255 255 255 
0.09726987 1.122679 0.0329998 255 255 254 255 
0.09288988 1.124232 0.01582985 255 255 255 255 
0.1084 1.125114 -0.04010005 254 254 254 255 
0.15003 1.124032 -0.1263902 104 97 88 255 
0.02873001 1.089281 -0.2548902 250 249 249 255 
0.02914009 1.095963 -0.2631902 196 192 189 255 
0.04379997 1.086876 -0.35207 255 255 254 255 
0.09179006 1.117982 0.02695994 255 255 254 255 
0.09866986 1.115813 -0.01442023 247 246 245 255 
0.10793 1.112423 -0.07133003 113 104 97 255 
0.09167991 1.104583 -0.09265015 72 62 52 255 
0.11897 1.114825 -0.09706017 92 86 75 255 
0.09469996 1.10068 -0.1199801 105 96 86 255 
0.1238099 1.114299 -0.1173801 78 71 59 255 
0.04753003 1.094061 -0.1801402 131 125 117 255 
0.11894 1.112509 -0.1406901 80 68 59 255 
0.05375991 1.090371 -0.1939401 232 229 227 255 
0.0365499 1.079627 -0.2516601 254 255 254 255 
0.03087006 1.078444 -0.2728502 255 254 254 255 
0.1487699 1.118488 0.01977997 169 162 157 255 
0.1156701 1.09941 -0.05118008 176 170 164 255 
0.09050999 1.096306 -0.1056802 150 145 138 255 
0.04948006 1.082702 -0.1807 252 252 251 255 
0.06509004 1.075136 -0.1873302 254 254 254 255 
0.07040987 1.078374 -0.19808 255 255 255 255 
0.05542002 1.079036 -0.1941302 255 255 254 255 
0.07299004 1.086604 -0.2071902 255 255 254 255 
0.03511009 1.067157 -0.2557702 255 255 255 255 
0.03544006 1.072743 -0.26427 255 255 254 255 
0.1162201 1.097201 -0.01816006 184 177 172 255 
0.1125999 1.094806 -0.04112001 221 219 215 255 
0.1248299 1.089969 -0.04989 254 254 253 255 
0.1251899 1.093866 -0.06025 250 250 248 255 
0.05904994 1.071446 -0.1593401 254 254 254 255 
0.05492005 1.064672 -0.1689601 255 255 255 255 
0.08077989 1.06968 -0.1993501 255 255 255 255 
0.1243299 1.087806 -0.01794 248 248 247 255 
0.1347099 1.079888 -0.01791021 254 255 254 255 
0.1292799 1.083019 -0.03758021 254 255 254 255 
0.1369399 1.082671 -0.02718015 254 254 254 255 
0.06144009 1.059582 -0.15999 255 255 255 255 
0.06268988 1.054056 -0.17753 255 255 255 255 
0.1355 1.077877 -0.00894019 255 255 254 255 
0.15476 1.056017 0.007259876 255 255 255 255 
0.1560799 1.056042 -0.007040232 255 255 255 255 
0.16462 1.061178 -0.01324007 255 255 255 255 
0.1759101 1.062069 -0.02878019 255 255 255 255 
0.1738599 1.05711 0.02396992 255 255 255 255 
0.1686901 1.04752 0.007269889 255 255 255 255 
0.20569 1.054947 -0.0208101 254 255 255 255 
0.19677 1.050756 -0.03166005 254 254 254 255 
0.18671 1.04519 0.00996998 250 249 248 255 
0.2252201 1.04066 -0.0431101 76 57 49 255 
0.1948601 1.0247 0.02745989 207 202 197 255 
0.2025 1.02702 0.01300982 227 223 219 255 
0.2043401 1.02211 0.01023987 250 249 248 255 
0.17707 1.01334 0.03016976 253 253 252 255 
0.18708 1.00892 0.02240995 254 255 254 255 
0.26032 1.0297 -0.02697012 251 251 250 255 
0.2779699 1.02382 -0.03693005 255 255 255 255 
0.1724199 1.00079 0.03058985 255 255 255 255 
0.2077399 1.00312 0.02332976 255 255 255 255 
0.21391 1.009 0.01428989 255 255 255 255 
-0.3848399 0.8291398 0.2639998 221 218 216 255 
-0.39208 0.8344299 0.2525499 227 225 223 255 
-0.3690101 0.8269099 0.2754098 254 255 254 255 
-0.37789 0.8221899 0.2548499 205 200 198 255 
-0.37859 0.8166199 0.2459898 151 141 134 255 
-0.3670701 0.8121998 0.2744498 255 255 255 255 
-0.3731801 0.8095999 0.2560699 250 249 249 255 
-0.3699199 0.7989099 0.2701198 255 255 255 255 
-0.3714201 0.8035998 0.2642498 255 255 254 255 
-0.37503 0.7951999 0.2542598 254 255 254 255 
-0.3630201 0.7928499 0.2649398 255 255 255 255 
-0.3727101 0.7826599 0.2521098 255 255 255 255 
-0.37913 0.7874599 0.2414899 231 228 226 255 
-0.37013 0.7766999 0.2616498 255 255 255 255 
-0.3583201 0.7810099 0.2645898 254 255 255 255 
0.4534701 0.8916299 0.1251898 254 254 254 255 
0.22098 0.6846399 0.3369699 255 255 254 255 
0.2336601 0.6895299 0.3290099 255 255 254 255 
0.2240599 0.6951998 0.3222598 254 255 254 255 
0.1787699 0.6546599 0.2106497 233 227 224 255 
0.14795 0.6156999 -0.005750179 247 246 245 255 
0.1092199 0.5899799 -0.09457016 255 254 254 255 
0.2331301 0.6760099 0.3517598 255 255 255 255 
0.23589 0.6714499 0.3597598 255 255 255 255 
0.19531 0.6467398 0.2542098 253 253 252 255 
0.10143 0.5969199 0.05432986 45 25 13 255 
0.13794 0.6029999 0.004469872 68 43 33 255 
0.14562 0.6037599 -0.02058005 254 255 254 255 
0.1132599 0.5793298 -0.09192014 254 255 254 255 
0.1141399 0.5863899 -0.1039503 255 255 255 255 
0.1193999 0.5797698 -0.1136401 254 255 255 255 
0.1154901 0.5805099 -0.1131802 255 255 255 255 
0.11265 0.5832599 -0.1209102 255 255 255 255 
0.1180399 0.5771099 -0.15172 254 255 255 255 
0.1223501 0.5743299 -0.1457202 254 254 254 255 
0.1160799 0.5702099 -0.1653702 254 255 254 255 
0.2427 0.6696999 0.3633698 255 255 255 255 
0.2414599 0.6683699 0.3442699 254 254 254 255 
0.2115501 0.6488599 0.2835498 199 187 182 255 
0.21041 0.6413798 0.2720498 254 254 253 255 
0.2022699 0.6428599 0.2635498 254 254 253 255 
0.20849 0.6429999 0.2527997 254 255 254 255 
0.2035199 0.6387599 0.2465098 254 255 254 255 
0.1957899 0.6405399 0.2393999 254 254 254 255 
0.2008799 0.6376599 0.2245898 255 255 254 255 
0.1313799 0.5873499 0.003839731 58 33 22 255 
0.1227599 0.5769999 -0.1054301 254 255 254 255 
0.1286 0.5681599 -0.1120303 249 248 247 255 
0.12841 0.5706999 -0.1168001 253 253 253 255 
0.12373 0.5750499 -0.1251602 254 254 254 255 
0.1213199 0.5725199 -0.1234403 254 254 254 255 
0.1206499 0.5655699 -0.1328201 254 254 254 255 
0.1234101 0.5684398 -0.1351502 254 254 254 255 
0.11967 0.5713398 -0.1404302 254 254 254 255 
0.11915 0.5644599 -0.1531701 254 254 254 255 
0.11875 0.5597999 -0.1439903 254 254 254 255 
0.1228901 0.5594399 -0.1640902 254 255 254 255 
0.22678 0.6412499 0.3028698 198 183 179 255 
0.21849 0.6439298 0.2950798 196 183 178 255 
0.2262 0.6367099 0.2902799 254 254 253 255 
0.21975 0.6397499 0.2798598 254 254 253 255 
0.2113799 0.6351799 0.2682998 254 254 254 255 
0.2182201 0.6342798 0.2361798 255 255 254 255 
0.08769999 0.5648799 0.04954981 42 24 12 255 
0.12086 0.5717399 0.005939722 77 58 47 255 
0.1247099 0.5608099 -0.09935021 153 136 131 255 
0.12599 0.5546799 -0.1113601 119 95 88 255 
0.1208499 0.5593799 -0.1221902 240 237 235 255 
0.12333 0.5601199 -0.14101 253 253 252 255 
0.1269101 0.5539099 -0.1402202 215 208 205 255 
0.1269999 0.5544798 -0.1534002 252 252 251 255 
0.1260999 0.5539598 -0.1753201 254 254 254 255 
0.29137 0.6614399 0.4004998 255 255 255 255 
0.27484 0.6543299 0.3820999 254 254 254 255 
0.24412 0.6385099 0.3289999 100 66 57 255 
0.22938 0.6292899 0.3022999 254 254 253 255 
0.2358499 0.6368099 0.3101099 222 214 211 255 
0.2131301 0.6227499 0.2682098 255 255 254 255 
0.1034199 0.5531698 -0.01718022 238 235 232 255 
0.1114801 0.5492198 -0.02630021 254 254 253 255 
0.12121 0.5525899 -0.04502012 252 252 251 255 
0.1285001 0.5557299 -0.08937027 121 97 89 255 
0.1307901 0.5503598 -0.1010001 148 127 121 255 
0.1373099 0.5527599 -0.1179802 111 89 79 255 
0.1324099 0.5441699 -0.1326602 134 111 104 255 
0.26208 0.6405599 0.3544599 149 126 120 255 
0.24887 0.6273799 0.3287499 227 220 217 255 
0.2410499 0.6305798 0.3206098 224 216 213 255 
0.23606 0.6234698 0.3117199 254 254 254 255 
0.2252999 0.6229799 0.2925398 254 255 254 255 
0.1223 0.5641799 0.1294899 255 255 255 255 
0.1172899 0.5549399 0.04002976 120 106 98 255 
0.1083299 0.5370799 -0.02981021 254 255 254 255 
0.10931 0.5422699 -0.04111029 254 254 254 255 
0.11493 0.5360498 -0.03631021 254 255 253 255 
0.1056701 0.5329199 -0.04187013 254 255 254 255 
0.1273399 0.5480299 -0.05465008 254 254 253 255 
0.13164 0.5441999 -0.06509019 254 254 253 255 
0.1310099 0.5431598 -0.08756019 251 250 249 255 
0.13145 0.5437399 -0.11099 213 204 200 255 
0.1397999 0.5411999 -0.1039002 253 253 252 255 
0.13406 0.5383499 -0.1221502 242 239 238 255 
0.1376999 0.5334799 -0.1332202 253 252 251 255 
0.4448501 0.7115299 0.5046599 254 255 255 255 
0.2535101 0.6210499 0.3398498 209 199 194 255 
0.24329 0.6183898 0.3206398 254 254 254 255 
0.1037301 0.5348499 0.1051099 245 243 242 255 
0.09128008 0.5208199 -0.02633025 255 255 255 255 
0.13003 0.5294199 -0.08618023 254 254 253 255 
0.1641599 0.5233299 -0.1974101 254 255 254 255 
0.4343699 0.7003798 0.4991498 254 254 254 255 
0.2992299 0.6377499 0.3990399 253 254 253 255 
0.2959 0.6316199 0.3905199 239 236 234 255 
0.27062 0.6158199 0.3541799 179 162 158 255 
0.25082 0.6133999 0.3293798 253 254 254 255 
0.2577499 0.6129899 0.3108099 254 255 254 255 
0.10086 0.5274699 0.09512971 225 221 218 255 
0.06438003 0.5006999 0.04075979 65 39 27 255 
0.1450799 0.5233899 -0.1213102 254 254 253 255 
0.2691899 0.6078899 0.3452499 252 251 249 255 
0.27641 0.6117599 0.3192098 254 254 254 255 
0.2763799 0.6087399 0.2999499 255 255 255 255 
0.1007799 0.5139298 0.09558986 230 226 224 255 
0.1034199 0.5211699 0.1057598 252 252 251 255 
-0.008190058 0.4479699 -0.1147602 193 179 174 255 
0.001289941 0.4462498 -0.1309803 222 217 214 255 
0.4468399 0.6831799 0.5102898 254 255 255 255 
0.2981699 0.6068798 0.3898598 129 102 96 255 
0.2905401 0.6118898 0.3812099 129 101 95 255 
0.28438 0.6051298 0.3721598 244 240 239 255 
0.28501 0.6007999 0.3615499 254 254 253 255 
0.2765299 0.6050799 0.3545698 254 254 253 255 
0.28414 0.6066599 0.3512799 254 254 254 255 
0.10368 0.5086899 0.1042399 251 250 249 255 
0.06650005 0.4889199 0.03976987 68 42 30 255 
0.008119918 0.4497899 -0.06487013 254 254 254 255 
0.002339937 0.4468299 -0.08982016 214 206 201 255 
-0.002649926 0.4418799 -0.1022601 94 61 52 255 
0.002400018 0.4382598 -0.1134701 91 63 53 255 
0.004380085 0.4389499 -0.1350303 247 246 243 255 
0.002420045 0.4310499 -0.1476503 254 254 254 255 
-0.01628008 0.4301399 -0.1525803 255 255 255 255 
0.4371301 0.6691899 0.5065799 254 254 254 255 
0.3055199 0.6007899 0.3988699 125 98 91 255 
0.2917 0.6000398 0.3811698 246 243 242 255 
0.29154 0.5996099 0.3815198 247 244 242 255 
0.29155 0.5998099 0.3811798 247 245 243 255 
0.2903601 0.5925599 0.3724098 254 254 254 255 
0.28907 0.5934299 0.3721099 254 254 254 255 
0.28239 0.5937198 0.3522898 254 255 254 255 
0.1032399 0.4941399 0.1071198 253 253 252 255 
0.06721006 0.4704399 0.02609991 163 148 141 255 
0.06265006 0.4665599 0.02386974 199 190 185 255 
0.009060003 0.4423798 -0.05004026 255 255 255 255 
0.01720987 0.4394798 -0.04320027 254 255 254 255 
0.01356993 0.4378299 -0.0618601 253 254 253 255 
0.01216993 0.4369199 -0.06131007 253 254 253 255 
0.009450056 0.4353999 -0.08184029 217 208 204 255 
0.01000986 0.4287399 -0.09223011 95 62 52 255 
0.006399967 0.4333398 -0.1023202 92 58 48 255 
0.01066003 0.4279499 -0.1133902 203 190 186 255 
0.01134 0.4302599 -0.1131602 184 172 167 255 
0.008699991 0.4339099 -0.1241103 199 183 179 255 
0.01366005 0.4295799 -0.1324003 254 254 253 255 
0.006620027 0.4195199 -0.1474903 255 255 255 255 
0.3202899 0.6028199 0.4146998 117 89 83 255 
0.3137399 0.5954999 0.4068699 115 87 80 255 
0.2991401 0.5939499 0.3904698 243 240 238 255 
0.2994801 0.5935699 0.3902198 246 243 241 255 
0.2939299 0.5862199 0.3817998 254 254 254 255 
0.29346 0.5872399 0.3815398 254 254 254 255 
0.28467 0.5821599 0.3696399 254 254 254 255 
0.08724008 0.4749199 0.07509993 69 42 32 255 
0.09269986 0.4662399 0.05516981 50 29 16 255 
0.07031999 0.4612899 0.03804992 66 39 28 255 
0.02154002 0.4266499 -0.0593002 245 242 240 255 
0.01438008 0.4313198 -0.05123021 254 254 254 255 
0.01491008 0.4311199 -0.07091023 234 229 226 255 
0.01513992 0.4242198 -0.08178021 93 62 52 255 
0.01423988 0.4169699 -0.09235027 202 188 183 255 
0.01088987 0.4232398 -0.1027601 178 160 155 255 
0.01103006 0.4214799 -0.1245101 246 242 241 255 
0.01337991 0.4158299 -0.1342702 255 255 255 255 
0.3224801 0.5904099 0.4150399 110 80 73 255 
0.31575 0.5833699 0.4068398 235 230 227 255 
0.3154 0.5829799 0.4068499 236 232 229 255 
0.30714 0.5882499 0.3988799 241 238 235 255 
0.30051 0.5812899 0.3905798 253 254 253 255 
0.3016699 0.5812399 0.3902998 253 254 253 255 
0.2955099 0.5749499 0.3810499 254 255 254 255 
0.0691999 0.4475598 0.03790973 69 42 32 255 
0.06703005 0.4442198 0.02388977 172 156 151 255 
0.06235991 0.4401199 0.02087973 219 212 209 255 
0.04390988 0.4307699 -0.01963021 254 254 254 255 
0.04529987 0.4294199 -0.01292016 254 254 254 255 
0.02375994 0.4138199 -0.05932023 102 74 66 255 
0.02174006 0.4201899 -0.07039024 97 71 62 255 
0.01921997 0.4123698 -0.08191015 193 178 173 255 
0.01760993 0.4054399 -0.09285024 247 242 242 255 
0.01461992 0.4116799 -0.1039801 253 253 252 255 
0.01219998 0.4083298 -0.1257801 254 255 254 255 
0.3360399 0.5928299 0.4319098 96 69 61 255 
0.3302899 0.5850599 0.4244099 90 60 52 255 
0.3240899 0.5779198 0.4159999 217 209 205 255 
0.32347 0.5775499 0.4154098 224 217 213 255 
0.30948 0.5760499 0.3987198 253 254 253 255 
0.3044299 0.5692599 0.3895799 254 254 254 255 
0.1229299 0.4716299 0.1421699 255 255 254 255 
0.1225899 0.4654499 0.1308098 254 255 255 255 
0.07952008 0.4429399 0.04450987 68 43 32 255 
0.0542799 0.4318999 0.01306985 251 250 249 255 
0.04922996 0.4253498 0.003249869 254 254 254 255 
0.03791008 0.4121699 -0.008590236 254 254 254 255 
0.02676997 0.4076599 -0.04842021 106 81 72 255 
0.0224999 0.4067599 -0.07058026 155 139 132 255 
0.02146993 0.3995498 -0.08192018 246 243 242 255 
0.01621995 0.3986698 -0.1039801 254 254 254 255 
0.01303992 0.3955199 -0.1259003 255 255 255 255 
0.3385099 0.5800298 0.4319998 79 49 41 255 
0.3318499 0.5724399 0.4246298 200 188 185 255 
0.3254 0.5651499 0.4163698 253 254 253 255 
0.3246399 0.5647099 0.4158498 253 254 253 255 
0.3177 0.5709399 0.4074098 254 254 253 255 
0.31699 0.5706699 0.4067398 254 254 253 255 
0.1234499 0.4580199 0.1439597 254 255 254 255 
0.1237401 0.4520899 0.1330697 254 254 254 255 
0.11983 0.4567399 0.1228099 233 228 225 255 
0.05793986 0.4201099 0.01258992 252 252 250 255 
0.04695997 0.4079899 -0.0001902729 254 254 254 255 
0.03950987 0.3992699 -0.008910209 245 243 242 255 
0.0293499 0.4014199 -0.03739025 115 89 81 255 
0.02541003 0.3930799 -0.0488303 129 107 99 255 
0.02569995 0.3933599 -0.0488303 128 106 97 255 
0.03140006 0.3908099 -0.06371024 245 240 238 255 
0.03413997 0.3931999 -0.06738022 244 240 238 255 
0.02578006 0.3876998 -0.08182028 254 254 254 255 
0.03137002 0.3984499 -0.07774022 247 244 242 255 
0.02036009 0.3929199 -0.0927203 254 254 254 255 
0.01601992 0.3908299 -0.09303024 254 255 254 255 
0.3332799 0.5596699 0.4251498 253 253 253 255 
0.33314 0.5594898 0.4252199 253 253 253 255 
0.31841 0.5577999 0.4069898 254 255 254 255 
0.31773 0.5578299 0.4067198 254 255 254 255 
0.31891 0.5578799 0.4082599 254 254 254 255 
0.32576 0.5534099 0.3921498 255 255 255 255 
0.1295401 0.4468499 0.1439597 254 254 254 255 
0.1218301 0.4441799 0.1225099 228 223 219 255 
0.07778988 0.4081899 0.04117987 61 34 24 255 
0.03438006 0.3897299 -0.03722027 97 67 58 255 
0.03529987 0.3791599 -0.06510022 245 241 240 255 
0.03392992 0.3794999 -0.06658009 246 242 241 255 
0.03217993 0.3851199 -0.07685021 254 254 254 255 
0.3473199 0.5610499 0.4404298 152 133 128 255 
0.3421501 0.5553099 0.4306098 252 252 251 255 
0.34051 0.5547999 0.4309398 253 252 251 255 
0.34175 0.5547299 0.4313998 253 252 251 255 
0.33494 0.5474399 0.4240398 254 255 255 255 
0.32614 0.5521199 0.4157199 255 255 254 255 
0.3272899 0.5528399 0.4156898 254 255 254 255 
0.31575 0.5410299 0.4159298 255 255 255 255 
0.31627 0.5423799 0.4137498 255 255 255 255 
0.32771 0.5501599 0.3985299 255 255 255 255 
0.04405008 0.3807999 -0.04239014 239 236 233 255 
0.3752199 0.5663199 0.5075998 254 255 254 255 
0.38315 0.5681798 0.4984299 254 254 253 255 
0.3608099 0.5600699 0.4718598 154 136 130 255 
0.35352 0.5564899 0.4525298 103 75 68 255 
0.35226 0.5506899 0.4436299 230 225 222 255 
0.3346499 0.5471699 0.4242299 254 255 255 255 
0.3445199 0.5421599 0.4341098 254 254 254 255 
0.34474 0.5427399 0.4313998 254 254 254 255 
0.3418399 0.5415399 0.4325799 254 254 254 255 
0.3164099 0.5292299 0.4131198 254 255 254 255 
0.31912 0.5336499 0.4047499 255 255 255 255 
0.04793987 0.3677599 -0.003370076 84 55 43 255 
0.04744992 0.3754399 -0.0162802 81 50 39 255 
0.05998001 0.3703699 -0.02617028 92 64 53 255 
0.0549501 0.3645599 -0.04639009 241 236 233 255 
0.05539999 0.3719399 -0.03779009 192 180 176 255 
0.3792399 0.5609899 0.5175998 254 255 254 255 
0.3810299 0.5554899 0.5070999 254 254 254 255 
0.3743299 0.5597599 0.4977398 254 254 254 255 
0.36549 0.5489699 0.4718698 82 53 44 255 
0.35805 0.5453699 0.4526699 217 209 205 255 
0.35314 0.5377699 0.4431999 254 254 254 255 
0.3400401 0.5337698 0.4254498 255 255 254 255 
0.3346299 0.5337099 0.4258498 255 254 254 255 
0.05483995 0.3597699 0.01039979 72 46 34 255 
0.04710994 0.3609399 -0.01456025 87 57 46 255 
0.05769 0.3590399 -0.03582028 212 205 201 255 
0.06680999 0.3571699 -0.05058029 254 254 254 255 
0.0609499 0.3597399 -0.05973008 254 254 254 255 
0.40322 0.5572399 0.5354898 255 255 255 255 
0.38531 0.5502598 0.5170399 254 255 254 255 
0.3787199 0.5449299 0.5000699 234 230 228 255 
0.3613499 0.5334998 0.4526699 254 254 253 255 
0.3644699 0.5407599 0.4620498 194 182 177 255 
0.3569299 0.5261099 0.4435098 254 254 254 255 
0.3485399 0.5309598 0.4318699 254 254 254 255 
0.34266 0.5284399 0.4333699 254 254 254 255 
0.05697999 0.3540299 0.004249781 70 44 32 255 
0.06039987 0.3477598 -0.01026013 242 239 236 255 
0.06745992 0.3489399 -0.04041007 254 254 254 255 
0.06279001 0.3468199 -0.05860022 255 255 254 255 
0.06022988 0.3390999 -0.06942013 255 255 255 255 
0.4110199 0.5487698 0.5270098 254 254 254 255 
0.37601 0.5319799 0.4804598 116 92 85 255 
0.36789 0.5289298 0.4620799 253 253 252 255 
0.3653899 0.5280399 0.4607798 254 254 253 255 
0.3569499 0.5162998 0.4501199 254 255 254 255 
0.3650499 0.5217899 0.4527699 254 255 254 255 
0.05617008 0.3406398 0.002839774 132 115 108 255 
0.05415998 0.3392799 0.005849808 103 83 74 255 
0.05002008 0.3296499 -0.01211026 254 254 253 255 
0.06073008 0.3399498 -0.02301028 254 254 254 255 
0.06132994 0.3322699 -0.04460028 255 255 255 255 
0.06552992 0.3364699 -0.05906013 255 255 255 255 
0.41881 0.5446299 0.5406399 254 255 255 255 
0.3841101 0.5262499 0.4932199 88 60 52 255 
0.3801199 0.5205699 0.4812099 235 230 228 255 
0.3806001 0.5193698 0.4831598 231 226 223 255 
0.37549 0.5252199 0.4703798 250 248 246 255 
0.36508 0.5114299 0.4558698 254 255 255 255 
0.37125 0.5171099 0.4623199 254 254 253 255 
0.36858 0.5179499 0.4460099 254 255 254 255 
0.05990992 0.3284498 -0.03327015 255 255 255 255 
0.06282005 0.3300198 -0.03562024 255 255 254 255 
0.4185699 0.5350499 0.5509799 254 255 254 255 
0.3778099 0.5129699 0.4719799 254 254 254 255 
0.3729299 0.5064899 0.4639199 254 255 254 255 
0.04914007 0.3170298 0.01885983 62 37 26 255 
0.04185996 0.3079098 -0.0006201565 246 244 242 255 
0.04214988 0.3124299 -0.0112901 254 254 254 255 
0.59369 0.6608998 0.9934798 255 255 255 255 
0.58981 0.6535598 0.9891099 255 255 255 255 
0.5902401 0.6535698 0.9893098 255 255 255 255 
0.3924099 0.5055399 0.5064698 156 138 133 255 
0.3872999 0.5008299 0.4933898 253 253 253 255 
0.38212 0.5064299 0.4853898 253 254 253 255 
0.3827101 0.5070099 0.4830298 253 254 254 255 
0.3766099 0.4995799 0.4756099 254 254 254 255 
0.02872 0.2823598 -0.01314023 255 255 254 255 
0.5920202 0.6485097 0.9995699 255 255 255 255 
0.39194 0.4946198 0.5036498 251 250 249 255 
0.3881999 0.4993099 0.4979699 252 252 251 255 
0.3871299 0.4997799 0.4957899 252 252 252 255 
0.38177 0.4924699 0.4870498 254 254 254 255 
0.3674699 0.4889599 0.4742599 255 254 254 255 
0.5892202 0.6411798 0.9956698 255 255 255 255 
0.58278 0.6384097 0.9841298 255 254 254 255 
0.5801402 0.6276298 0.9633999 106 78 68 255 
0.39162 0.4924399 0.5087998 248 246 244 255 
0.39637 0.4889199 0.5139898 248 246 245 255 
0.3890699 0.4882399 0.4933099 254 254 254 255 
0.5937601 0.6321398 0.9950099 255 254 254 255 
0.5850102 0.6206398 0.9520098 105 75 68 255 
0.5816199 0.6173698 0.9559999 121 95 85 255 
0.39529 0.4849299 0.5198299 245 243 241 255 
0.39193 0.4818199 0.5036498 254 254 254 255 
0.3910099 0.4791399 0.5087998 254 254 254 255 
0.6077601 0.6281598 0.9831198 254 254 253 255 
0.5833699 0.6126498 0.9648298 248 246 244 255 
0.5836598 0.6060698 0.9560598 240 236 235 255 
0.5797502 0.6120198 0.9460598 92 64 54 255 
