ply
format ascii 1.0
comment VCGLIB generated
element vertex 1044
property float x
property float y
property float z
property uchar red
property uchar green
property uchar blue
property uchar alpha
element face 0
property list uchar int vertex_indices
end_header
0.02523017 1.547475 0.1072201 254 254 253 255 
0.02403998 1.54751 0.1069201 253 252 252 255 
0.02382016 1.542299 0.1156701 212 207 204 255 
0.02461004 1.533391 0.09307016 255 255 254 255 
0.02552009 1.528106 0.1037201 254 254 254 255 
0.03066015 1.509874 0.1049501 254 255 254 255 
0.02693009 1.515609 0.1130001 244 242 241 255 
0.03347015 1.50977 0.1065601 254 255 254 255 
0.04105997 1.503716 0.1041101 255 255 255 255 
0.03556013 1.498893 0.10662 254 255 254 255 
0.03024006 1.504605 0.11244 246 245 244 255 
0.03673005 1.503693 0.12017 230 227 225 255 
0.04077005 1.493173 0.1012501 255 255 255 255 
0.03311014 1.493637 0.1135801 249 248 247 255 
0.03641009 1.4799 0.1154701 243 241 239 255 
0.07189012 1.465611 0.06394017 255 255 255 255 
0.07095003 1.470506 0.06821001 255 255 255 255 
0.07502007 1.470668 0.07701004 255 255 255 255 
0.07479 1.451769 0.08448017 255 254 254 255 
0.05669999 1.454668 0.09108008 251 251 250 255 
0.04685998 1.44591 0.1189801 220 216 212 255 
0.03962016 1.45122 0.1268901 102 80 71 255 
0.06904006 1.44151 0.06394017 254 255 255 255 
0.07187009 1.44072 0.08378995 236 235 233 255 
0.04585004 1.434928 0.11737 204 197 191 255 
0.03309011 1.44438 0.1332701 82 49 37 255 
0.06197 1.431706 0.05835999 254 255 254 255 
0.05448008 1.430705 0.1099402 86 75 67 255 
0.06315017 1.409451 0.0881101 254 254 254 255 
0.05054998 1.405078 0.12787 79 52 40 255 
0.07295012 1.358877 0.11525 239 237 236 255 
0.07119012 1.354097 0.1048301 254 255 255 255 
0.07957006 1.341585 0.10594 254 255 254 255 
0.09171009 1.327996 0.1079401 254 254 254 255 
0.09288001 1.323014 0.1144401 254 254 253 255 
0.08333015 1.329172 0.11821 239 237 235 255 
0.08878016 1.321414 0.13211 151 134 126 255 
0.06834006 1.32542 0.1414901 78 44 27 255 
0.1010802 1.316402 0.1081101 254 254 254 255 
0.09226012 1.312065 0.12454 206 198 193 255 
0.1003501 1.29669 0.12212 158 144 137 255 
0.09490013 1.291405 0.1303099 96 67 54 255 
0.09753013 1.270657 0.1285201 93 64 51 255 
0.10975 1.262126 0.09551012 248 248 246 255 
0.08796 1.259179 0.1458901 92 66 53 255 
0.11239 1.212851 0.07814012 255 255 255 255 
0.1101 1.080977 0.08387003 221 216 211 255 
0.10186 1.086663 0.0823401 168 157 151 255 
0.11375 1.084004 0.07450996 254 254 253 255 
0.1035402 1.080837 0.09153996 96 73 61 255 
-0.05767989 1.145668 -0.59544 254 255 255 255 
-0.06012988 1.151551 -0.5852998 249 248 248 255 
-0.06316996 1.146817 -0.5768899 165 152 148 255 
0.11813 1.069056 0.07018004 254 255 254 255 
0.1250401 1.069449 0.07578001 254 254 253 255 
0.09871006 1.070827 0.09040008 134 115 105 255 
0.1066401 1.073369 0.08421002 234 231 227 255 
0.1049001 1.071509 0.08402 238 235 231 255 
0.1219602 1.063355 0.06998 254 255 254 255 
0.1082602 1.066347 0.07560001 254 254 254 255 
0.1203301 1.058948 0.07873997 248 248 247 255 
0.1192801 1.061528 0.07605013 254 255 254 255 
0.10463 1.062237 0.08432993 244 242 240 255 
0.1073 1.05956 0.08434996 247 246 244 255 
0.09810019 1.059348 0.09059009 143 123 114 255 
0.11322 1.049054 0.08159003 227 224 221 255 
0.1039701 1.048749 0.08738002 206 196 190 255 
-0.06980991 1.111139 -0.50324 255 255 254 255 
0.1114202 1.040456 0.07800993 242 240 237 255 
0.08580017 0.951501 0.17393 254 254 254 255 
-0.07088995 1.006497 -0.30236 255 255 255 255 
-0.05468988 1.005528 -0.28147 255 255 255 255 
0.08064008 0.94672 0.16195 254 255 254 255 
-0.08803988 0.998805 -0.4815399 254 255 255 255 
0.06537008 0.926292 0.1206699 115 87 77 255 
0.04826999 0.92294 0.18061 181 166 161 255 
0.03607011 0.925477 0.2370599 254 254 254 255 
0.06130004 0.912227 0.1522501 112 83 72 255 
0.05919003 0.906903 0.14253 110 78 67 255 
0.05410004 0.907182 0.16445 237 233 230 255 
0.05069995 0.901855 0.1735099 254 255 254 255 
0.04493999 0.906785 0.21428 254 255 254 255 
0.04085016 0.901293 0.22079 255 255 255 255 
0.04771996 0.89148 0.1321901 177 163 158 255 
0.0543201 0.89071 0.1529001 247 245 244 255 
0.05601001 0.8963 0.16267 251 252 251 255 
0.046 0.892 0.1715301 254 255 254 255 
0.04140997 0.89858 0.1799401 254 255 254 255 
0.03857017 0.89403 0.19022 255 255 254 255 
0.05315018 0.88543 0.12407 137 116 109 255 
0.03825998 0.88743 0.1359201 253 253 252 255 
0.04227996 0.8903099 0.1506401 254 254 253 255 
0.04104018 0.8877 0.1598199 254 254 254 255 
0.05315018 0.87154 0.1346801 253 254 253 255 
0.04158998 0.87633 0.16043 254 255 254 255 
0.07296014 0.85567 0.1060401 88 57 50 255 
0.07391 0.86045 0.11389 90 60 52 255 
0.09533 0.8429899 0.05133994 253 253 253 255 
0.07176018 0.84436 0.1060401 94 61 53 255 
0.04998016 0.84951 0.15815 255 255 255 255 
0.08539009 0.8346499 0.04811008 254 253 252 255 
0.08670998 0.83394 0.06863005 108 78 70 255 
0.06726003 0.8392199 0.11544 132 103 96 255 
0.08099008 0.82446 0.04796011 254 254 253 255 
0.07667017 0.81378 0.06880005 96 62 54 255 
0.0934 0.7934099 0.03671009 255 255 255 255 
0.05932999 0.7951 0.06641991 90 58 50 255 
0.07444 0.7681299 0.04705007 250 249 248 255 
0.07192016 0.7627599 0.05667002 153 130 125 255 
0.06621003 0.7423899 0.03240997 255 255 255 255 
0.07329011 0.71617 0.03695995 254 255 254 255 
0.57358 0.4935899 0.8352301 255 255 255 255 
0.5639999 0.4936299 0.84737 255 255 255 255 
0.5536001 0.4918999 0.85836 254 255 254 255 
0.06448007 0.6833299 0.03694993 253 254 254 255 
0.06426001 0.6834899 0.03761989 253 254 253 255 
0.05700016 0.6851 0.05596 101 68 59 255 
0.5214503 0.4685699 0.8889 252 252 251 255 
0.06853008 0.65274 0.02881008 255 255 255 255 
0.06085014 0.66046 0.03679996 254 254 253 255 
0.05999017 0.6610399 0.03763992 254 253 252 255 
0.06525016 0.64923 0.03134995 255 254 254 255 
0.06243014 0.64811 0.03687006 252 251 250 255 
0.06667995 0.63394 0.04240995 243 240 238 255 
0.14344 0.59096 0.02315002 254 255 254 255 
0.08460999 0.62106 0.03062993 255 255 255 255 
0.09429002 0.61341 0.02502995 254 254 254 255 
0.06340003 0.6230199 0.04229003 226 220 217 255 
0.08779001 0.60623 0.02645998 254 254 254 255 
0.06709003 0.6152099 0.03776007 239 236 234 255 
0.13234 0.58327 0.01827007 253 252 252 255 
0.1055601 0.59067 0.02992993 254 254 254 255 
0.06511998 0.60401 0.03819995 239 235 233 255 
0.5025599 0.3861099 0.82754 144 117 113 255 
0.12393 0.5741199 0.0172401 205 192 189 255 
0.06013012 0.59359 0.03869992 236 232 229 255 
0.07529998 0.59112 0.03462987 253 254 253 255 
0.07536006 0.58218 0.03461009 252 251 251 255 
0.03502011 0.59813 0.0509501 86 59 50 255 
0.1119201 0.56479 0.01618009 130 100 95 255 
0.1174102 0.56425 0.01689987 131 100 95 255 
0.08335018 0.57402 0.02897005 234 228 224 255 
0.09817004 0.57037 0.02584009 199 185 181 255 
0.09828997 0.56883 0.02248006 158 134 128 255 
0.08501005 0.56663 0.03193002 186 170 165 255 
0.04492998 0.58885 0.04865008 97 69 59 255 
0.1007302 0.5567 0.02163987 149 122 116 255 
0.09360003 0.5569 0.02357988 125 93 84 255 
0.4912302 0.3517199 0.7674699 204 191 189 255 
0.09891009 0.5385699 0.01775007 250 249 248 255 
0.08937001 0.54557 0.02554994 140 115 108 255 
0.09282017 0.54449 0.02426987 161 140 134 255 
0.06912017 0.55817 0.03952007 130 103 93 255 
0.07588005 0.55146 0.03321009 102 69 59 255 
0.1021302 0.52855 0.01369004 254 254 254 255 
0.1041501 0.53069 0.0109499 254 255 254 255 
0.08872008 0.53307 0.02651005 244 241 239 255 
0.09148002 0.53232 0.02416997 248 247 245 255 
0.09669995 0.53724 0.0197001 248 245 244 255 
0.07413006 0.53952 0.03313999 161 139 132 255 
0.0940001 0.52543 0.01695995 254 255 254 255 
0.07763004 0.52973 0.02782993 246 244 242 255 
-0.5365598 0.74657 0.2165099 103 73 68 255 
0.03577995 0.51451 -0.004100039 254 254 254 255 
0.04648018 0.50132 0.0008700332 254 254 254 255 
0.07685018 0.4890699 -0.01841994 254 255 254 255 
0.04250002 0.49787 0.005229993 254 254 253 255 
0.08527017 0.4711 -0.04491993 254 254 254 255 
0.07466006 0.4777499 -0.01900001 254 254 254 255 
0.08365011 0.4594899 -0.04519005 254 254 254 255 
0.07684016 0.45565 -0.02137013 121 93 89 255 
0.07891011 0.45467 -0.02058001 123 95 91 255 
0.07477999 0.4620199 -0.01312991 166 148 145 255 
0.06613016 0.46029 -0.006149967 176 158 154 255 
0.08280015 0.44774 -0.06296011 254 255 254 255 
0.08218002 0.44759 -0.04380007 253 252 252 255 
0.07199001 0.45164 -0.03498002 236 232 230 255 
0.07139015 0.45157 -0.03415008 232 227 224 255 
0.07117009 0.44603 -0.0246801 184 166 163 255 
0.07309008 0.44506 -0.02378007 187 169 166 255 
0.07422018 0.44954 -0.01120993 90 56 48 255 
0.0685401 0.44645 -0.003100118 102 70 61 255 
0.06698012 0.4529099 0.00639991 228 222 218 255 
-0.03525996 0.48035 0.14657 254 254 254 255 
0.07404995 0.44546 -0.05824991 254 254 253 255 
0.07228017 0.43917 -0.03369995 253 253 253 255 
0.07036018 0.4340299 -0.02499004 227 221 219 255 
0.06585002 0.4349999 -0.003030024 105 74 64 255 
0.06465006 0.4413099 0.006530085 137 110 103 255 
0.05344009 0.44874 0.01212005 222 214 210 255 
0.04656005 0.44402 0.01869992 204 191 187 255 
-0.02421999 0.465 0.1185499 253 254 254 255 
0.07036018 0.42765 -0.03438994 235 228 226 255 
0.06873012 0.42839 -0.01229998 99 69 62 255 
0.05102015 0.43767 0.009759941 132 102 93 255 
0.03971004 0.43893 0.02736 125 97 88 255 
-0.03118992 0.4595699 0.10815 233 222 220 255 
0.06147003 0.41801 -0.01449009 101 66 58 255 
0.04964018 0.4201499 -0.000910007 91 59 50 255 
0.05861998 0.42259 -0.006489955 90 59 50 255 
0.04749012 0.42659 0.008950032 94 63 53 255 
-0.03163981 0.45073 0.09787992 232 223 219 255 
-0.03532982 0.44911 0.1101499 226 214 210 255 
0.06434011 0.41127 -0.01586005 119 85 78 255 
0.05408001 0.41187 -0.007729971 141 113 107 255 
0.04351997 0.41601 0.007900036 97 67 58 255 
0.03561997 0.4105799 0.01536993 94 64 55 255 
-0.02790999 0.44054 0.09187988 235 225 222 255 
-0.03524995 0.44007 0.10163 210 193 188 255 
0.08641005 0.40077 -0.1911499 236 224 223 255 
0.03366995 0.4030499 -0.01404997 241 234 233 255 
0.04308009 0.40538 -0.01864001 240 233 231 255 
0.03923011 0.39975 -0.004929984 240 233 232 255 
0.03948998 0.40529 0.005919969 215 202 198 255 
0.01769996 0.4050699 0.03005007 85 57 46 255 
-0.03559995 0.43185 0.09191994 175 148 141 255 
-0.06489992 0.4422799 0.12371 224 209 205 255 
0.04538012 0.3966299 -0.05081007 254 255 254 255 
0.04238009 0.39238 -0.04020998 254 255 254 255 
0.02486014 0.3937 0.02677992 86 56 45 255 
-0.05481982 0.4220099 0.09660987 219 203 198 255 
-0.06163001 0.42246 0.1062 233 222 220 255 
0.07907009 0.38066 -0.1914801 162 134 133 255 
0.02965999 0.38626 0.01847008 154 129 121 255 
0.02181005 0.38203 0.02619008 89 58 49 255 
-0.3446798 0.53124 0.1654101 130 97 90 255 
-0.3715699 0.54403 0.18272 134 103 95 255 
-0.4023099 0.55362 0.18763 114 75 67 255 
0.08133006 0.36767 -0.2117901 243 237 236 255 
-0.3399599 0.51816 0.1670099 104 69 61 255 
0.05107999 0.36832 -0.2107501 240 231 230 255 
-0.0524199 0.39552 0.07366995 109 70 60 255 
-0.1629999 0.42079 0.10792 195 171 166 255 
-0.16207 0.41003 0.10212 230 217 215 255 
-0.21573 0.43213 0.1308399 235 223 221 255 
-0.2211699 0.42458 0.1132501 235 224 222 255 
-0.2638199 0.44032 0.11689 235 224 221 255 
0.01341009 0.2850599 0.02916005 89 58 48 255 
-0.06604981 0.3195699 -0.1373901 209 183 180 255 
0.009680033 0.2764699 0.01709988 103 67 55 255 
0.07822013 1.787538 0.13154 253 253 253 255 
0.07376003 1.785782 0.1290301 254 254 254 255 
0.07125998 1.776289 0.1161601 255 255 255 255 
0.06001997 1.776238 0.1233501 254 254 253 255 
0.06941009 1.718122 0.09804001 255 255 255 255 
0.06085014 1.666374 0.09069005 255 255 255 255 
0.02709007 1.629763 0.1131701 250 250 248 255 
0.02482009 1.538684 0.1026901 254 254 254 255 
0.02296019 1.537143 0.1068901 248 248 247 255 
0.02146006 1.526831 0.10661 254 254 253 255 
0.04613018 1.508459 0.10104 255 255 255 255 
0.02994013 1.496461 0.1255502 99 79 71 255 
0.05040002 1.465539 0.09188998 254 255 254 255 
0.03890014 1.431688 0.1383401 81 48 35 255 
0.07595015 1.416767 0.06704009 255 255 255 255 
0.04595017 1.331819 0.1493901 112 92 83 255 
0.10866 1.302439 0.1112801 253 254 253 255 
0.08015013 1.299306 0.1425902 85 53 41 255 
0.08031011 1.277257 0.13265 82 54 44 255 
0.7560799 1.058962 0.06860003 254 255 255 255 
0.07210016 1.077463 0.09987006 77 53 42 255 
0.22875 1.015652 0.09342012 255 255 255 255 
0.12374 1.034259 0.06324014 254 254 254 255 
0.6603401 0.89563 0.000789959 255 255 255 255 
0.6449301 0.8882899 -0.004889887 254 255 254 255 
0.6137502 0.83735 0.02866991 254 255 254 255 
-0.09992003 1.065702 -0.54061 254 255 254 255 
-0.1078699 1.046346 -0.52678 254 255 254 255 
0.05549002 0.902537 0.1524101 207 196 192 255 
0.06920004 0.85504 0.1201001 157 134 129 255 
0.06355 0.8302799 0.0811301 93 62 54 255 
0.05642009 0.81328 0.07870992 77 47 40 255 
0.05808997 0.80418 0.07240994 79 50 42 255 
0.07518005 0.75071 0.03763992 255 255 254 255 
0.5146201 0.4458199 0.86946 225 217 215 255 
0.0625701 0.67194 0.03684002 254 254 254 255 
0.06153011 0.67246 0.03767997 253 254 253 255 
0.15364 0.60439 0.01668005 255 255 254 255 
0.1517601 0.60017 0.02415996 255 255 254 255 
0.1451201 0.59865 0.03160005 255 255 254 255 
0.1305799 0.59188 0.02800994 254 254 255 255 
0.13029 0.58489 0.02837997 254 254 254 255 
0.11359 0.5929199 0.03188997 254 254 254 255 
0.07578015 0.60666 0.03158002 254 254 254 255 
0.07564998 0.60387 0.0334199 254 254 254 255 
0.05850005 0.61128 0.04441004 186 173 167 255 
0.4937699 0.3634899 0.78785 172 150 148 255 
0.08243012 0.59576 0.02683001 254 254 254 255 
0.0885601 0.59322 0.02858 254 254 254 255 
0.07414007 0.59192 0.03375988 254 254 253 255 
0.07939005 0.58137 0.02991991 253 253 252 255 
0.1115601 0.56135 0.02185993 124 93 89 255 
0.05847001 0.56726 0.04673987 122 97 90 255 
0.08633995 0.55531 0.03032999 102 66 57 255 
0.07265997 0.5563999 0.0346201 110 77 68 255 
0.04560995 0.56398 0.05127006 87 60 52 255 
0.08020997 0.54476 0.03158002 122 92 85 255 
0.06948018 0.5367199 0.03459005 166 145 139 255 
0.05506015 0.53539 0.03935008 99 70 61 255 
-0.54756 0.7468899 0.22154 219 212 208 255 
0.06866002 0.5263799 0.01615004 253 254 254 255 
0.06183004 0.5245199 0.01773004 253 254 254 255 
0.07498002 0.5258499 0.03104 236 231 229 255 
-0.5378499 0.7277399 0.2145701 178 159 156 255 
-0.54302 0.7374899 0.21768 217 208 205 255 
0.04263997 0.50498 0.01280002 255 254 254 255 
0.04450011 0.49656 0.008369966 254 254 254 255 
0.04250002 0.49787 0.005229993 254 254 254 255 
0.1142402 0.46244 -0.02608009 254 255 255 255 
0.1148701 0.4621 -0.02539011 254 255 255 255 
0.05191016 0.49096 -0.0006000567 254 254 254 255 
0.04555011 0.47101 0.15605 253 253 253 255 
-0.04948997 0.49956 0.18904 255 255 254 255 
-0.0640099 0.50166 0.2310701 255 255 255 255 
0.04770017 0.4746699 0.02450995 250 248 246 255 
0.04385996 0.4775 0.02425007 239 234 232 255 
0.0292201 0.46503 0.04479007 93 65 56 255 
-0.05930996 0.4782899 0.1840899 152 125 120 255 
0.0402801 0.45162 0.02610997 207 194 188 255 
0.03077006 0.4564099 0.03722004 105 73 62 255 
-0.04452991 0.45699 0.12745 203 184 181 255 
0.06122017 0.4298899 0.0065699 110 80 71 255 
0.04961014 0.4299099 0.02040986 107 75 65 255 
-0.05782986 0.45619 0.14553 136 100 94 255 
-0.05607986 0.4433299 0.11617 189 166 160 255 
0.005680084 0.4105899 0.0697699 143 111 103 255 
-0.02729988 0.4325299 0.08321003 236 226 223 255 
-0.04438996 0.43211 0.10054 143 106 98 255 
-0.4517899 0.58875 0.1935001 135 101 95 255 
-0.03466988 0.42207 0.08306006 138 103 95 255 
-0.04435992 0.42369 0.09113006 137 99 90 255 
-0.08715987 0.43378 0.1173799 238 228 227 255 
-0.45486 0.57601 0.1933001 95 59 49 255 
-0.63606 0.65299 0.1891199 176 151 148 255 
-0.03663993 0.41228 0.07397989 114 74 62 255 
-0.04278994 0.41342 0.08407 162 129 119 255 
-0.1031799 0.43045 0.10778 246 240 239 255 
-0.20733 0.47223 0.1426199 239 230 226 255 
-0.4437299 0.5669 0.1891599 132 99 92 255 
-0.1036398 0.42117 0.09697989 204 185 180 255 
-0.1844099 0.45182 0.1324101 180 153 146 255 
-0.23032 0.46891 0.15092 145 109 101 255 
-0.2233799 0.47047 0.1503299 186 162 156 255 
-0.3511899 0.5222 0.1724799 120 86 79 255 
-0.3901598 0.53275 0.1806999 225 212 208 255 
-0.3899798 0.5324 0.1808699 226 214 210 255 
-0.4077098 0.54256 0.18762 216 200 196 255 
-0.4563298 0.55509 0.1882201 237 229 227 255 
-0.07181001 0.40073 0.07448987 111 73 63 255 
-0.10324 0.41105 0.08793 119 77 69 255 
-0.1266799 0.41873 0.10002 119 77 68 255 
-0.1148598 0.415 0.0939 121 78 69 255 
-0.1842 0.4413899 0.12566 110 70 61 255 
-0.1957099 0.44093 0.1282499 125 85 76 255 
-0.21385 0.4513299 0.1384099 120 80 71 255 
-0.2137499 0.4513299 0.13831 120 80 71 255 
-0.2256999 0.45137 0.1415401 145 110 103 255 
-0.23702 0.4592299 0.1485 128 89 82 255 
-0.1148698 0.40519 0.08453993 146 111 104 255 
-0.1266398 0.40924 0.09004001 151 118 111 255 
-0.1512299 0.41685 0.1021901 186 160 156 255 
-0.1761699 0.42541 0.1130801 204 184 180 255 
-0.1871898 0.42953 0.1181901 198 177 173 255 
-0.20959 0.44191 0.1323801 171 142 136 255 
-0.20929 0.4418499 0.13235 170 141 135 255 
-0.22205 0.4427199 0.13481 220 206 203 255 
-0.2211099 0.44216 0.13564 216 201 198 255 
-0.2427499 0.4476299 0.14763 237 228 225 255 
-0.1264598 0.39931 0.08094005 229 217 214 255 
-0.2084699 0.4295499 0.11867 244 238 237 255 
-0.2205 0.43163 0.12939 244 239 238 255 
-0.2322099 0.43601 0.1335299 244 239 238 255 
-0.22633 0.43171 0.13584 243 237 236 255 
-0.2665999 0.44276 0.14249 244 239 238 255 
-0.1689498 0.3827599 0.08074 219 197 194 255 
0.02084017 0.28426 -0.00259993 178 134 126 255 
0.01973009 0.2827799 -0.004680132 178 134 126 255 
0.01770997 0.2843 -0.00500009 178 134 126 255 
-0.03245997 1.858163 0.1404001 254 255 255 255 
-0.01598001 1.848799 0.1483201 254 254 254 255 
-0.01802993 1.837701 0.14683 254 254 254 255 
-0.02592993 1.826605 0.14544 255 255 254 255 
-0.01537991 1.815215 0.1500501 254 254 254 255 
0.04618001 1.779714 0.1291501 179 172 168 255 
0.06467009 1.766165 0.1188101 255 255 255 255 
0.05330014 1.766074 0.1244301 234 234 233 255 
0.0697701 1.756025 0.1139702 255 255 255 255 
0.05887008 1.754909 0.12206 254 254 254 255 
0.0462501 1.74421 0.11857 255 255 254 255 
0.04908013 1.732813 0.1229302 254 254 254 255 
0.05059004 1.736246 0.12666 254 254 253 255 
0.06746006 1.728383 0.107 255 255 255 255 
0.05897999 1.726838 0.1135601 255 255 255 255 
0.04541016 1.726147 0.1269502 238 235 234 255 
0.05595016 1.717422 0.1112801 255 255 255 255 
0.04110003 1.718858 0.11418 254 254 254 255 
0.05247998 1.713436 0.1118301 255 255 254 255 
0.05427003 1.702449 0.10942 255 255 255 255 
0.03412008 1.708431 0.1060101 254 255 254 255 
0.04126 1.688555 0.1134402 254 254 254 255 
0.04126 1.688555 0.1134402 254 254 254 255 
0.05920005 1.609813 0.08964004 254 254 254 255 
0.05961013 1.598966 0.09085002 255 255 255 255 
0.02789998 1.608824 0.11984 140 123 115 255 
0.005789995 1.595167 0.1365801 84 57 44 255 
0.02652001 1.584939 0.1336001 81 48 34 255 
0.02273011 1.547382 0.1258 86 61 52 255 
0.02346015 1.531837 0.11629 192 184 181 255 
0.01821017 1.525897 0.13682 89 59 46 255 
0.03065014 1.507155 0.1301202 83 60 51 255 
0.02289009 1.514853 0.1343302 69 42 29 255 
0.04062009 1.401545 0.13103 74 40 29 255 
0.04789019 1.361209 0.1404999 81 48 34 255 
0.07464004 1.321676 0.13334 90 59 48 255 
0.08201003 1.291538 0.13281 95 64 53 255 
0.1159 1.223671 0.07706009 255 255 255 255 
0.1099901 1.146772 0.07481012 254 254 254 255 
0.05611014 1.127828 0.1242801 226 222 220 255 
0.04016018 1.124089 0.1332601 254 254 254 255 
0.7636001 0.961637 0.02430996 254 254 254 255 
0.04799008 1.115961 0.12632 250 251 250 255 
0.6129901 0.958756 0.04275998 255 255 255 255 
0.6138003 0.945198 0.04292997 255 255 255 255 
0.22647 1.028204 0.09188995 255 255 255 255 
0.08773017 1.059309 0.09619007 96 69 58 255 
0.21912 1.016578 0.09655008 255 255 255 255 
0.2112 1.01844 0.09611997 255 255 254 255 
0.09416008 1.048521 0.09382996 120 91 81 255 
0.2210901 1.003534 0.09931001 255 255 255 255 
0.1117101 1.033451 0.06680998 254 253 253 255 
0.1018 1.040237 0.08355007 146 124 117 255 
0.0971601 1.038885 0.08835992 121 92 82 255 
-0.06506991 1.126685 -0.59545 254 255 255 255 
0.22908 0.995246 0.09383997 255 255 255 255 
0.10848 1.022592 0.07142004 236 232 229 255 
0.2159002 0.987692 0.1074501 255 255 254 255 
0.5660002 0.85384 0.04961999 234 229 227 255 
0.6009901 0.83759 0.03281005 254 254 254 255 
0.5866101 0.83822 0.0363601 245 243 242 255 
0.6071999 0.8254399 0.03047998 255 255 254 255 
0.6173699 0.8226299 0.03333003 255 255 255 255 
0.5806601 0.82626 0.03763993 253 254 253 255 
0.59321 0.8263299 0.03286989 254 254 254 255 
0.5924098 0.8142099 0.0312 255 255 254 255 
0.03883004 0.8753099 0.1392599 254 255 254 255 
0.1062801 0.84382 0.04687007 254 254 254 255 
0.40254 0.7420499 0.09883005 254 255 254 255 
0.1112502 0.80484 0.02791006 254 255 255 255 
0.1118 0.79685 0.03355009 255 255 255 255 
0.0783 0.7957 0.06104 140 113 107 255 
0.06687999 0.8052599 0.06612999 94 62 54 255 
0.1036201 0.7866 0.03483994 254 255 255 255 
0.07048011 0.7713699 0.02139003 255 255 255 255 
0.07804012 0.74412 0.02943999 255 255 255 255 
0.07392001 0.73944 0.03743989 255 255 255 255 
0.06891012 0.73487 0.04702002 239 235 233 255 
0.0796001 0.7202799 0.02870995 255 255 255 255 
0.05878997 0.6785799 0.04500991 217 210 206 255 
0.05859017 0.6788 0.04581004 207 198 194 255 
0.06730008 0.66113 0.02170998 255 255 255 255 
0.04227996 0.61139 0.05135994 100 72 63 255 
0.04964018 0.60017 0.04695993 107 81 73 255 
0.17905 0.52257 0.34047 254 255 254 255 
0.10708 0.5757899 0.01894002 220 210 208 255 
0.08194995 0.58324 0.0286501 254 254 253 255 
0.07454014 0.56986 0.03532009 235 230 227 255 
0.06181002 0.5806299 0.04031997 215 204 201 255 
0.05191016 0.58104 0.04290991 123 99 92 255 
0.1034901 0.54935 0.01838999 245 241 238 255 
0.07009006 0.5608799 0.03694992 141 115 107 255 
0.06235003 0.54837 0.03751998 92 62 51 255 
0.05964017 0.5581499 0.04216008 107 79 71 255 
0.10322 0.52756 0.01091008 255 255 254 255 
0.04832006 0.5458 0.0427299 91 64 55 255 
0.09028006 0.51991 0.02519993 254 255 255 255 
0.07141995 0.52772 0.03484993 228 221 218 255 
0.06559014 0.5249 0.03668003 216 206 203 255 
-0.51401 0.72855 0.2130199 243 241 240 255 
-0.50807 0.71789 0.2112699 251 251 250 255 
0.06549001 0.52034 0.005029962 255 255 254 255 
0.06069016 0.5193599 0.02764992 254 254 253 255 
0.05227995 0.5182099 0.02970986 248 246 245 255 
0.04746008 0.5260299 0.03658991 123 99 93 255 
-0.5023201 0.70739 0.2091399 253 253 253 255 
0.0422101 0.51235 0.01847987 252 251 251 255 
-0.5257199 0.70635 0.2110201 101 71 67 255 
0.0369401 0.5085499 0.0230699 210 203 198 255 
0.09423018 0.47219 -0.01344009 254 254 254 255 
0.0804801 0.4667699 -0.02209993 250 249 247 255 
0.05314016 0.48007 0.01505999 254 255 254 255 
0.05427003 0.46684 0.01829008 254 254 254 255 
0.04026008 0.4725 0.03264002 138 113 104 255 
-0.02394986 0.4758999 0.1634899 254 254 254 255 
-0.03755999 0.48325 0.1668599 255 254 254 255 
-0.06456995 0.4837199 0.2342201 254 254 254 255 
-0.06217003 0.4826699 0.2335 254 254 254 255 
-0.4779599 0.65398 0.2089 252 251 251 255 
0.04965997 0.45514 0.01987986 253 254 253 255 
0.04541016 0.46165 0.02918987 227 219 215 255 
-0.05586982 0.47922 0.1619299 247 243 242 255 
-0.4512 0.63289 0.2019799 254 254 254 255 
-0.47575 0.64071 0.2043901 253 253 253 255 
0.04200006 0.44993 0.03028993 192 178 172 255 
0.03201008 0.44531 0.03620986 110 79 69 255 
-0.02354002 0.4603 0.1330901 254 254 254 255 
-0.4251399 0.61087 0.1975599 254 255 254 255 
-0.4377599 0.61092 0.1978901 254 255 253 255 
-0.44451 0.62207 0.1996301 254 254 254 255 
-0.4927399 0.63169 0.2050601 150 126 122 255 
-0.5132699 0.6406599 0.20606 117 83 76 255 
0.03172016 0.43335 0.03475002 105 76 65 255 
-0.01805997 0.4482399 0.09536985 254 254 253 255 
-0.43132 0.60023 0.19515 254 254 253 255 
-0.48616 0.6210799 0.20182 182 163 158 255 
-0.05250001 0.4482499 0.1269999 157 126 119 255 
-0.4094698 0.58603 0.1969099 254 255 254 255 
-0.4579899 0.59895 0.1970499 203 187 184 255 
-0.4649999 0.60966 0.1993399 238 233 231 255 
-0.5337 0.6282799 0.2047101 162 136 130 255 
0.0776701 0.42021 -0.1293301 244 241 240 255 
0.03143001 0.4173399 0.02427987 90 63 52 255 
0.0006999969 0.4211 0.07425002 227 220 217 255 
-0.01081991 0.42721 0.08062986 246 246 245 255 
-0.04603004 0.4394599 0.1088999 145 112 105 255 
-0.3962898 0.56521 0.1891799 227 219 216 255 
-0.4514799 0.5884 0.1927801 141 107 100 255 
-0.47118 0.59965 0.1966699 126 90 80 255 
-0.5462699 0.6297899 0.20305 221 211 208 255 
-0.55881 0.63002 0.2026399 252 251 251 255 
-0.6081898 0.65125 0.19059 199 188 185 255 
0.08265018 0.4146101 -0.2097201 254 255 255 255 
0.03449011 0.39851 0.01576999 181 165 159 255 
0.03030014 0.40527 0.02467993 82 53 42 255 
-0.004940033 0.4102 0.07509998 238 234 230 255 
-0.02821994 0.42058 0.0738099 196 181 174 255 
-0.05103993 0.42916 0.1093099 237 231 227 255 
-0.05922985 0.4320999 0.1194101 253 253 252 255 
-0.37744 0.55486 0.1845 220 210 206 255 
-0.3901699 0.55434 0.18694 148 118 112 255 
-0.4776599 0.5881 0.1922 200 181 177 255 
-0.4841099 0.58837 0.19959 238 232 229 255 
-0.48421 0.59787 0.1978 155 127 119 255 
-0.4968998 0.5979999 0.1984699 228 221 217 255 
-0.5179999 0.60904 0.19749 246 244 243 255 
-0.6456399 0.66222 0.1930099 212 203 201 255 
0.00383997 0.3987499 0.06921986 135 105 95 255 
-0.07996988 0.42392 0.09353999 253 253 252 255 
-0.09074998 0.42702 0.1014099 254 254 253 255 
-0.07904005 0.431 0.1108199 254 254 253 255 
-0.1155798 0.44389 0.1238699 254 254 253 255 
-0.1006498 0.43839 0.1212199 254 254 253 255 
-0.1541998 0.4506099 0.1233199 251 251 250 255 
-0.14607 0.44714 0.1304501 253 253 252 255 
-0.1775498 0.46058 0.1287799 253 252 251 255 
-0.2281899 0.4872 0.1427401 254 254 253 255 
-0.25652 0.49037 0.162 229 221 218 255 
-0.3647499 0.53282 0.1796201 112 76 69 255 
-0.3959699 0.54285 0.1850899 150 120 113 255 
-0.4156599 0.5537499 0.1894799 157 127 122 255 
-0.6520898 0.6525899 0.1917101 248 247 246 255 
-0.6517599 0.6525 0.1922401 248 247 246 255 
-0.04375982 0.40386 0.07399992 131 93 83 255 
-0.06061983 0.40643 0.08916 214 201 197 255 
-0.09130001 0.41676 0.09179 212 199 195 255 
-0.1619599 0.4426 0.1232801 177 154 149 255 
-0.17309 0.44756 0.12794 183 161 156 255 
-0.1952899 0.4561499 0.13711 178 155 150 255 
-0.20331 0.4618599 0.13863 207 192 187 255 
-0.2927899 0.49369 0.1641999 120 80 72 255 
-0.3775899 0.5328699 0.1799701 158 130 124 255 
-0.4417598 0.55379 0.19045 248 245 244 255 
-0.4807 0.5741199 0.2024799 177 159 154 255 
-0.04435992 0.39651 0.06564001 116 80 69 255 
-0.09139991 0.40677 0.08303002 119 78 70 255 
-0.1269898 0.42839 0.1096399 193 174 170 255 
-0.1502099 0.43717 0.11919 181 158 153 255 
-0.2014599 0.45058 0.13587 125 85 76 255 
-0.2012398 0.45059 0.1359299 125 85 76 255 
-0.2181599 0.4606199 0.14499 135 97 89 255 
-0.24196 0.46883 0.15447 126 85 76 255 
-0.2849798 0.4827399 0.1613501 148 113 107 255 
-0.3466699 0.5092499 0.17379 240 235 232 255 
-0.3648899 0.5122299 0.1715501 254 254 253 255 
-0.38343 0.5219799 0.17749 254 254 254 255 
-0.3859999 0.5232899 0.1758099 254 254 254 255 
-0.37096 0.52223 0.1765299 237 230 229 255 
-0.3994598 0.52545 0.17554 254 254 254 255 
-0.4545 0.55197 0.16075 254 254 254 255 
-0.40364 0.53325 0.18171 253 253 252 255 
-0.03725982 0.38569 0.04994992 97 62 52 255 
-0.04822993 0.38484 0.05495003 108 71 62 255 
-0.05503988 0.3866 0.06331996 100 64 55 255 
-0.06665993 0.39115 0.06768993 102 65 56 255 
-0.09185982 0.39616 0.07472996 125 91 83 255 
-0.10344 0.40106 0.07946996 135 100 92 255 
-0.13873 0.41308 0.09572987 167 139 133 255 
-0.1387899 0.42258 0.10569 122 78 70 255 
-0.1519599 0.42693 0.1112299 123 79 71 255 
-0.1642399 0.4311299 0.11652 119 77 69 255 
-0.18451 0.43146 0.1150699 186 164 160 255 
-0.1814799 0.43836 0.1229699 111 71 62 255 
-0.1928799 0.43879 0.1247599 129 93 85 255 
-0.24933 0.45912 0.1504 162 133 129 255 
-0.06552982 0.37824 0.06222991 217 204 199 255 
-0.07921004 0.39103 0.07003001 135 104 96 255 
-0.10219 0.3899499 0.07206992 234 225 223 255 
-0.1143799 0.39492 0.07614998 234 226 223 255 
-0.1382899 0.4033999 0.08635 238 231 229 255 
-0.1966698 0.4313899 0.11692 236 229 226 255 
-0.07182002 0.36807 0.06139997 239 231 229 255 
-0.07831001 0.3791699 0.06445006 239 232 229 255 
-0.09044003 0.38472 0.06780008 239 231 228 255 
-0.12784 0.3965 0.06844 247 244 242 255 
-0.1508999 0.39824 0.08134989 238 230 228 255 
-0.17505 0.41526 0.10429 243 238 237 255 
-0.1875498 0.4195 0.10952 245 241 240 255 
-0.03022003 0.34767 0.05037001 206 195 190 255 
-0.08370996 0.3680099 0.06476 242 235 233 255 
-0.1019099 0.37858 0.06490996 239 231 229 255 
-0.1231799 0.3870599 0.06488995 246 240 239 255 
-0.01643991 0.32134 0.04621008 106 74 66 255 
0.03946018 1.757852 0.1268701 179 175 173 255 
0.04473019 1.74635 0.1308002 250 250 250 255 
0.03422999 1.746475 0.1330501 200 196 195 255 
0.05800009 1.737753 0.1177301 254 254 254 255 
0.03986001 1.736322 0.12963 222 220 218 255 
0.02838016 1.736274 0.1339702 131 121 118 255 
0.03631997 1.726533 0.1264402 234 233 232 255 
0.06513 1.693872 0.09270015 255 255 255 255 
0.07182002 1.699022 0.09128013 255 255 254 255 
0.06305003 1.693431 0.09717003 255 255 255 255 
0.05491018 1.693846 0.0982801 254 254 254 255 
0.06053019 1.688848 0.09057012 255 255 255 255 
0.06964016 1.681503 0.09903017 255 255 255 255 
0.06336999 1.682195 0.09689012 255 255 255 255 
0.06072998 1.677619 0.09056011 255 255 255 255 
0.0451901 1.672261 0.1018602 219 216 214 255 
0.06826997 1.661079 0.08956017 255 255 255 255 
0.05210018 1.660337 0.10032 248 248 248 255 
0.07412004 1.655561 0.09074011 255 255 255 255 
0.07642007 1.644013 0.08978 255 255 255 255 
0.06735015 1.648915 0.09429016 255 255 255 255 
0.05903006 1.648705 0.09963002 255 255 255 255 
0.04394007 1.639696 0.06693997 255 255 255 255 
0.05524015 1.636866 0.1037101 255 255 255 255 
0.04278016 1.629308 0.1125201 254 254 254 255 
-0.01883984 1.616064 0.13985 254 254 254 255 
-0.01097989 1.605741 0.1365901 244 243 241 255 
-0.02322984 1.605771 0.1360999 255 255 254 255 
-0.004879951 1.595016 0.1376501 204 199 195 255 
-0.01725984 1.595018 0.13716 254 254 253 255 
-0.02922988 1.595054 0.1363801 255 255 255 255 
0.0008001328 1.584507 0.1377801 125 111 105 255 
0.0116601 1.584644 0.1369301 77 46 33 255 
-0.01015997 1.58441 0.13756 246 245 243 255 
-0.006150007 1.574266 0.13599 222 218 216 255 
-0.01694989 1.574148 0.13597 254 254 253 255 
-0.03775001 1.57674 0.1235401 254 254 254 255 
-0.06127 1.565211 0.12329 255 255 255 255 
-0.06275988 1.565311 0.1269502 255 255 255 255 
-0.07545996 1.564626 0.1243001 255 255 255 255 
-0.05453992 1.553975 0.1246001 254 255 254 255 
-0.10917 1.561142 0.09281005 255 255 255 255 
-0.1169698 1.549359 0.09707011 254 254 254 255 
0.02022004 1.527296 0.12669 86 57 46 255 
-0.04402995 1.532389 0.1248301 109 104 101 255 
-0.07532001 1.53366 0.11244 254 254 253 255 
-0.08932996 1.533476 0.1118301 255 255 255 255 
-0.04994988 1.52191 0.12458 243 242 241 255 
-0.03795004 1.521911 0.12595 217 214 213 255 
-0.06290984 1.519573 0.1183602 255 255 255 255 
-0.06658983 1.511029 0.12419 255 255 255 255 
-0.06053996 1.500305 0.12526 255 255 255 255 
0.04834008 1.471618 0.1012501 255 255 254 255 
0.04927015 1.470813 0.09936012 255 255 254 255 
0.05611014 1.447898 0.10435 239 237 236 255 
0.0381701 1.450548 0.12614 95 70 61 255 
0.05507016 1.44253 0.1112 208 205 202 255 
0.08015013 1.427392 0.06903017 254 255 254 255 
-0.0006599426 1.42092 0.13826 254 254 254 255 
0.04110003 1.408653 0.1343001 89 55 46 255 
0.03765011 1.390604 0.1200801 72 39 28 255 
0.01994014 1.388506 0.1385502 220 215 213 255 
0.07113004 1.372166 0.09598005 254 255 255 255 
0.06035995 1.370167 0.12175 152 137 130 255 
0.04117012 1.377848 0.11809 73 41 29 255 
0.02590013 1.378668 0.1391701 176 168 164 255 
0.05026007 1.363756 0.1226801 83 52 39 255 
0.01949 1.368489 0.1383101 246 246 245 255 
0.05843997 1.35132 0.12863 95 60 48 255 
0.0476501 1.348684 0.13243 86 49 34 255 
0.004070044 1.351911 0.14651 255 255 254 255 
0.07896996 1.336064 0.1258501 203 196 191 255 
0.06389999 1.34025 0.1267999 96 64 52 255 
0.02747011 1.341104 0.1431001 250 250 249 255 
0.01048017 1.340089 0.14844 255 255 255 255 
0.1042101 1.325695 0.09968007 255 255 255 255 
0.05799007 1.332613 0.1399201 85 54 40 255 
0.03427005 1.329405 0.1439301 235 233 231 255 
0.01808 1.328688 0.1482002 254 255 255 255 
0.11484 1.313312 0.10297 255 255 254 255 
0.06637001 1.320714 0.1415101 81 50 38 255 
0.02458 1.31686 0.1496199 255 255 254 255 
0.01657009 1.31886 0.1406602 255 255 254 255 
0.01624012 1.318701 0.1416 255 255 254 255 
0.09528017 1.302522 0.1300601 130 109 100 255 
0.07290006 1.309194 0.14089 88 57 46 255 
0.07125998 1.309811 0.13948 89 61 50 255 
0.01905012 1.305614 0.1489199 255 255 255 255 
0.06239009 1.289656 0.13699 88 66 56 255 
0.02311015 1.294927 0.1467601 255 255 254 255 
0.10746 1.23182 0.07463013 254 254 255 255 
0.06268001 1.13887 0.12582 173 165 162 255 
0.06231999 1.116611 0.1217299 193 185 181 255 
0.02348995 1.115916 0.12406 254 255 254 255 
0.03430009 1.116412 0.1225101 254 254 254 255 
0.03453016 1.103725 0.1264699 254 254 254 255 
0.01711011 1.105037 0.12268 254 254 254 255 
0.03034997 1.09593 0.11613 249 248 247 255 
0.6804402 0.989142 0.03413996 255 255 254 255 
0.7806199 0.959249 0.02338012 255 255 255 255 
0.12078 1.059908 0.06345996 255 255 254 255 
0.1125901 1.058746 0.06823 254 255 254 255 
0.7744501 0.945117 0.02503999 255 255 255 255 
0.07738018 1.058636 0.10123 84 60 48 255 
0.07007003 1.060762 0.09944996 78 54 44 255 
0.73399 0.932615 0.02827009 254 255 255 255 
0.7284 0.942137 0.03082999 254 255 254 255 
0.08748007 1.03688 0.09353003 106 77 67 255 
0.6299002 0.940567 0.03023013 254 255 255 255 
0.6177499 0.940583 0.03176006 254 255 255 255 
0.1014202 1.028703 0.07819995 107 82 72 255 
0.6239703 0.937223 0.03910001 254 255 255 255 
0.6243598 0.927913 0.03795012 254 255 254 255 
0.19964 0.9805019 0.1129001 254 255 254 255 
0.20526 0.971869 0.11086 255 255 255 255 
0.1960402 0.96802 0.1154199 255 255 255 255 
0.5174701 0.89272 0.0284601 255 255 255 255 
0.5926301 0.85488 0.03749998 159 141 137 255 
0.5132902 0.8730999 0.02327998 255 255 255 255 
0.5211899 0.85807 0.03186996 253 252 252 255 
0.5062602 0.87148 0.02775009 255 255 255 255 
0.5084002 0.8581799 0.03269012 254 254 254 255 
0.4975998 0.8562 0.04318006 255 255 254 255 
0.5028203 0.8422099 0.04888995 254 254 254 255 
0.4821999 0.84716 0.04326995 254 254 253 255 
0.4908502 0.83462 0.04379995 252 251 251 255 
0.1661 0.8714299 0.10369 245 242 241 255 
0.1510401 0.87071 0.1075199 239 235 234 255 
0.1984601 0.83218 0.0600601 254 255 254 255 
0.07774997 0.82566 0.01531012 255 255 255 255 
-0.5311399 0.78733 0.2005101 254 254 254 255 
-0.51546 0.78117 0.21164 254 254 254 255 
-0.55021 0.79115 0.2142599 241 236 234 255 
0.07497001 0.65016 0.02678996 255 255 255 255 
-0.5303299 0.77504 0.2017899 254 254 254 255 
-0.5490198 0.7885799 0.19146 253 253 253 255 
-0.54919 0.7779599 0.22221 132 103 99 255 
0.06316996 0.6402299 0.05168992 150 127 122 255 
-0.51614 0.7658499 0.1975699 255 255 255 255 
-0.52881 0.76231 0.20429 254 254 254 255 
-0.5192699 0.7665299 0.2014599 255 255 254 255 
-0.54199 0.77122 0.21257 157 141 136 255 
-0.5581598 0.76668 0.2268301 252 251 250 255 
-0.5713198 0.7687399 0.22553 254 255 254 255 
-0.5155199 0.75071 0.2129999 251 251 250 255 
-0.5320899 0.75781 0.21622 203 192 189 255 
-0.5427098 0.7583699 0.2205101 119 88 84 255 
-0.5664799 0.75792 0.2245401 254 254 254 255 
-0.5007598 0.7423999 0.2033201 254 254 254 255 
-0.50723 0.7388999 0.21432 254 254 254 255 
-0.5285399 0.74867 0.21171 204 194 192 255 
-0.5697 0.74939 0.2177301 254 255 253 255 
-0.5016499 0.72857 0.21166 254 254 254 255 
-0.5676899 0.73963 0.21537 254 254 254 255 
-0.4803798 0.71367 0.2144199 255 254 254 255 
-0.4956698 0.71788 0.2099901 254 255 254 255 
-0.5208299 0.71816 0.2119001 181 166 163 255 
-0.5608199 0.72922 0.21222 254 254 254 255 
-0.5494199 0.7269499 0.2151099 253 254 253 255 
-0.5616999 0.72698 0.21604 254 254 254 255 
-0.5322599 0.7171999 0.2121299 124 97 93 255 
-0.5443699 0.71637 0.2133899 251 250 249 255 
-0.5679801 0.7192 0.20728 254 255 254 255 
-0.5506299 0.7058799 0.21207 254 254 254 255 
-0.5515299 0.70688 0.2108701 254 254 254 255 
-0.53842 0.7065799 0.2110799 233 228 226 255 
-0.5649099 0.70722 0.20956 255 255 254 255 
-0.5329499 0.69618 0.2089699 210 200 198 255 
-0.54456 0.6957099 0.2101601 253 254 253 255 
-0.5571198 0.69564 0.21048 254 254 254 255 
0.1092701 0.5412099 0.01197987 253 254 254 255 
0.1066 0.5394599 0.01360993 253 254 254 255 
-0.4730799 0.6638499 0.21242 254 254 254 255 
-0.4707 0.6635799 0.2140201 254 255 254 255 
-0.52457 0.68431 0.2089999 146 124 121 255 
-0.5385199 0.68492 0.20872 253 253 252 255 
-0.55216 0.68558 0.2081099 253 254 254 255 
-0.4790599 0.6536499 0.2096899 254 254 254 255 
-0.4883199 0.6626099 0.2077599 250 249 249 255 
-0.5465698 0.6746299 0.20675 254 254 253 255 
-0.5639699 0.6860499 0.2073 254 254 253 255 
-0.5199199 0.65294 0.20733 151 130 126 255 
-0.5266099 0.66461 0.2071801 196 183 180 255 
-0.5401099 0.66308 0.2066501 252 253 252 255 
-0.55899 0.67335 0.2093299 244 242 241 255 
-0.57162 0.67316 0.2096 210 200 197 255 
-0.618 0.6893699 0.18607 91 61 54 255 
0.04728007 0.52757 -0.003709985 254 254 254 255 
-0.4671199 0.6289799 0.2040499 254 254 253 255 
-0.4879799 0.64044 0.2050901 233 228 226 255 
-0.4868999 0.64227 0.20815 243 241 239 255 
-0.4867198 0.6421599 0.20832 244 242 240 255 
-0.50017 0.6401399 0.2058499 130 102 99 255 
-0.5332298 0.6518099 0.2067099 243 239 237 255 
-0.54671 0.65045 0.2067099 163 137 132 255 
-0.5650599 0.66197 0.2087501 154 127 124 255 
-0.5783398 0.66177 0.2066 118 84 78 255 
-0.60308 0.67818 0.1857401 117 82 75 255 
-0.39691 0.59597 0.20483 254 255 254 255 
-0.46033 0.62103 0.20516 253 254 253 255 
-0.4716399 0.62075 0.20343 253 252 252 255 
-0.5262799 0.6406699 0.2064 172 149 143 255 
-0.5396399 0.63946 0.2059401 122 86 79 255 
-0.55934 0.65099 0.2074099 124 88 82 255 
-0.5723 0.65125 0.20675 150 123 118 255 
-0.62377 0.67389 0.1893299 87 59 52 255 
-0.6394398 0.67321 0.1928099 243 239 236 255 
-0.6753399 0.6867499 0.1868101 255 255 255 255 
0.03926015 0.49361 0.03874998 92 62 53 255 
0.03156018 0.50103 0.04521994 75 49 40 255 
-0.4215999 0.59804 0.19989 254 254 253 255 
-0.45275 0.61058 0.20043 252 252 251 255 
-0.4781399 0.6094 0.20046 157 128 123 255 
-0.4992199 0.62094 0.20217 118 81 74 255 
-0.5077798 0.62798 0.2031 110 75 68 255 
-0.5197198 0.62948 0.2052501 120 84 77 255 
-0.55338 0.6400599 0.20607 166 139 136 255 
-0.5778799 0.6387 0.2047499 253 253 253 255 
-0.6155999 0.6617 0.1924599 81 51 44 255 
-0.6331198 0.6622699 0.1921499 111 82 77 255 
-0.66189 0.67163 0.19834 254 255 255 255 
0.1032901 0.4715099 0.0009398872 254 254 254 255 
0.04878998 0.48667 0.02379994 253 253 251 255 
0.0381701 0.47891 0.04199008 95 65 56 255 
0.0422101 0.48367 0.03414993 134 109 100 255 
-0.42486 0.5891399 0.1935099 253 253 253 255 
-0.4376299 0.5892199 0.1940101 231 223 220 255 
-0.4453399 0.59946 0.1975401 253 252 251 255 
-0.49193 0.6105599 0.19887 125 90 82 255 
-0.50442 0.61077 0.19797 170 148 143 255 
-0.52542 0.61957 0.20099 209 196 193 255 
-0.5404599 0.61868 0.202 247 246 245 255 
-0.57061 0.62997 0.2040799 254 254 254 255 
-0.6036198 0.64275 0.18363 254 254 254 255 
-0.6201 0.6512899 0.1916099 186 171 168 255 
0.06469011 0.47297 -0.005469996 253 254 253 255 
0.03767014 0.46691 0.04228 100 71 61 255 
-0.41557 0.5763199 0.1917401 232 224 221 255 
-0.4022598 0.5758799 0.1926499 252 251 250 255 
-0.4286599 0.5763 0.1924401 160 131 126 255 
-0.464 0.58883 0.19465 124 88 80 255 
-0.49948 0.59944 0.19624 239 234 232 255 
-0.5179799 0.61045 0.19818 242 238 237 255 
-0.5316398 0.60877 0.1970699 253 253 253 255 
-0.5336399 0.6080199 0.19992 252 252 251 255 
-0.54322 0.6094199 0.1970299 254 254 254 255 
-0.5527499 0.61885 0.20187 253 253 253 255 
-0.56409 0.6208299 0.19658 254 254 254 255 
-0.59079 0.63484 0.17589 255 255 255 255 
-0.5680499 0.61508 0.2068 254 254 254 255 
-0.6225801 0.64771 0.17201 254 254 253 255 
0.05907011 0.46491 0.003769915 253 253 254 255 
-0.4096899 0.56507 0.1896799 158 127 122 255 
-0.4221499 0.56506 0.1908601 130 92 84 255 
-0.4354799 0.5751699 0.1928599 133 95 89 255 
-0.52493 0.59851 0.1961001 253 254 252 255 
-0.53953 0.59805 0.1961899 254 254 254 255 
-0.58792 0.6249 0.17782 255 255 255 255 
-0.61446 0.62994 0.18254 255 255 254 255 
-0.22716 0.50414 0.1562899 254 255 254 255 
-0.38326 0.54311 0.18465 119 81 73 255 
-0.42873 0.55378 0.1900299 225 214 211 255 
-0.43501 0.56551 0.19024 139 105 98 255 
-0.46913 0.5739599 0.1975899 147 120 113 255 
-0.6305399 0.62919 0.1665099 255 255 255 255 
-0.01962996 0.4415799 0.08361987 254 253 253 255 
-0.20014 0.48628 0.1349199 255 254 254 255 
-0.4224398 0.5429599 0.1880699 253 252 252 255 
-0.07394004 0.43957 0.12425 254 254 254 255 
-0.1930699 0.47443 0.1348701 254 254 252 255 
-0.2149799 0.48642 0.1378899 249 247 245 255 
-0.2723 0.48909 0.1641999 137 103 97 255 
-0.3304498 0.5141599 0.1583801 110 78 71 255 
-0.4741499 0.55686 0.15217 254 255 254 255 
-0.4658899 0.54865 0.1875201 254 254 253 255 
-0.09069991 0.43505 0.1310299 254 254 253 255 
-0.1335399 0.45078 0.12462 254 254 254 255 
-0.2478399 0.4795799 0.1594799 174 151 146 255 
-0.27601 0.48007 0.1600199 130 90 84 255 
-0.3192098 0.49313 0.1598399 236 231 228 255 
-0.3420498 0.4994199 0.16905 253 253 252 255 
-0.3967099 0.52289 0.17767 254 254 254 255 
-0.4064898 0.5201299 0.1845 254 254 254 255 
-0.02627993 0.41101 0.06691007 141 113 105 255 
-0.11479 0.43397 0.1141599 254 254 253 255 
-0.12745 0.43809 0.1197799 253 253 253 255 
-0.2549999 0.46918 0.1553801 127 86 80 255 
-0.2560799 0.47017 0.15411 128 88 81 255 
-0.2699599 0.46912 0.1566 199 180 177 255 
-0.2988899 0.48322 0.1587599 235 226 224 255 
-0.31197 0.48294 0.1564999 254 254 253 255 
-0.33341 0.49385 0.1555801 253 253 252 255 
-0.3566098 0.5010999 0.16902 254 254 254 255 
-0.3694499 0.5010999 0.1695099 254 255 254 255 
-0.3998499 0.5083799 0.1840499 254 255 255 255 
-0.49826 0.55032 0.15252 255 255 255 255 
-0.0309999 0.4047099 0.05213002 128 91 83 255 
-0.03395987 0.40082 0.06676988 129 92 81 255 
-0.11535 0.42483 0.10335 207 192 188 255 
-0.26316 0.4582499 0.1524299 244 239 237 255 
-0.28282 0.46885 0.15743 248 246 244 255 
-0.2774799 0.45779 0.1550799 254 254 254 255 
-0.29444 0.4707199 0.1545301 254 254 253 255 
-0.3037798 0.47328 0.1524299 254 254 254 255 
-0.3177099 0.47268 0.15079 255 255 255 255 
-0.3248398 0.48286 0.1540699 254 254 254 255 
-0.3446898 0.49107 0.1486099 254 254 254 255 
-0.36026 0.49447 0.15764 254 255 254 255 
-0.3630099 0.48972 0.1675699 254 255 254 255 
-0.01344991 0.39271 0.05594996 114 78 68 255 
-0.07878995 0.4086699 0.08425001 172 149 142 255 
-0.2449799 0.44425 0.1401301 254 254 253 255 
-0.25648 0.44705 0.1489499 254 254 254 255 
-0.2697299 0.44566 0.1539801 254 255 254 255 
-0.2934599 0.4616799 0.14167 255 255 255 255 
-0.2890999 0.45972 0.1520899 254 254 254 255 
-0.29649 0.4608899 0.1508699 255 255 254 255 
-0.3055198 0.4667799 0.1471401 255 255 254 255 
0.08927011 0.40436 -0.1719501 255 255 254 255 
-0.02376986 0.3847799 0.04664997 96 64 53 255 
-0.08446002 0.40009 0.07905988 109 70 61 255 
-0.19835 0.42506 0.1127 254 254 253 255 
-0.2409 0.43916 0.1336799 254 254 254 255 
-0.2638199 0.44032 0.11689 254 255 254 255 
-0.2565799 0.43609 0.1429301 255 255 255 255 
-0.29426 0.45199 0.1326499 255 255 254 255 
0.05800009 0.38455 -0.09948011 254 254 254 255 
-0.03218985 0.37558 0.04495004 100 68 59 255 
-0.04319 0.3741499 0.05117992 171 147 142 255 
-0.1581099 0.4006599 0.09587006 254 254 254 255 
-0.16854 0.40283 0.0952299 254 254 254 255 
-0.1871099 0.4097899 0.09981994 254 255 254 255 
-0.2007699 0.41356 0.1061199 254 255 254 255 
-0.23137 0.42097 0.1373899 254 254 253 255 
-0.2432699 0.4228899 0.13358 255 255 254 255 
-0.2520399 0.42606 0.1382001 254 255 254 255 
0.0741601 0.37533 -0.1615901 250 248 247 255 
-0.04806995 0.3643199 0.04956988 249 248 245 255 
-0.05984998 0.36824 0.05674985 253 253 252 255 
-0.1427999 0.3989 0.07349996 254 254 254 255 
-0.01575994 0.34675 0.04603007 104 74 66 255 
-0.03812003 0.3359699 0.04760006 238 228 226 255 
-0.03655005 0.33596 0.05449989 238 228 226 255 
-0.02910995 0.32296 0.04922989 224 209 206 255 
-0.04421997 0.32382 0.05034998 239 229 227 255 
0.08177996 0.09641993 0.01783992 190 150 144 255 
0.06835008 0.09078002 0.006229885 192 152 145 255 
0.06824017 0.08370996 0.02278996 182 153 145 255 
0.0715301 0.09150994 0.03111006 211 187 182 255 
0.07693005 0.07249999 0.008790023 188 150 142 255 
0.06720018 0.07629001 0.01612998 197 170 164 255 
0.05420017 0.08363998 0.02459002 121 82 73 255 
0.04335999 0.08560002 0.02418996 107 70 59 255 
0.05938005 0.07235992 0.01854992 147 107 98 255 
0.05043006 0.07463002 0.01896001 112 75 67 255 
0.04497004 1.768324 0.13686 180 174 170 255 
0.02235007 1.746406 0.13737 71 55 50 255 
0.04398012 1.738952 0.13136 254 255 255 255 
-0.02671003 1.731879 0.1144001 240 239 238 255 
0.02292013 1.726303 0.1338901 87 70 64 255 
-0.02481985 1.721994 0.1191801 189 185 182 255 
-0.02215981 1.707971 0.1230301 178 172 168 255 
0.06181002 1.671551 0.10069 255 255 255 255 
0.07280016 1.66705 0.09194008 255 255 255 255 
-0.02035999 1.58479 0.13244 255 255 254 255 
-0.02261996 1.564218 0.1329001 254 254 254 255 
-0.04870987 1.565377 0.12137 255 255 254 255 
-0.04156995 1.553586 0.1261 253 253 252 255 
-0.03260994 1.554628 0.1263701 254 254 253 255 
-0.07467985 1.554347 0.1199302 255 255 255 255 
-0.08651996 1.54737 0.1093201 255 255 255 255 
-0.03263998 1.5326 0.1240701 63 55 51 255 
-0.02372003 1.521629 0.13014 152 148 144 255 
-0.02953982 1.510645 0.1281999 240 240 239 255 
-0.04221988 1.510762 0.1232201 254 255 255 255 
-0.03420997 1.500199 0.1293601 255 255 255 255 
-0.03002 1.500003 0.1342801 255 255 254 255 
0.08782005 1.456866 0.07377017 255 255 255 255 
0.01846004 1.428483 0.13775 163 154 149 255 
0.006800175 1.428554 0.13473 251 251 250 255 
-0.008509874 1.431585 0.1360801 255 255 254 255 
0.02405 1.418532 0.13826 93 74 69 255 
0.01366997 1.418382 0.1367201 238 236 235 255 
-0.01008987 1.420281 0.1443402 254 255 254 255 
0.01760006 1.408751 0.13615 216 212 209 255 
0.007500172 1.408626 0.1334001 254 254 253 255 
-0.004369974 1.409399 0.1402901 255 255 254 255 
0.01385999 1.39863 0.1357301 253 253 251 255 
0.003410101 1.398563 0.1325802 254 254 254 255 
-0.00545001 1.398225 0.1314801 255 255 255 255 
0.008599997 1.388698 0.1339201 254 254 254 255 
-0.00248003 1.388716 0.13035 255 255 255 255 
0.003690004 1.378607 0.133 254 254 254 255 
0.01523018 1.378758 0.13562 253 253 252 255 
0.05866003 1.309866 0.14246 85 61 50 255 
0.04253006 1.105331 0.1238199 254 254 253 255 
0.04735017 1.088644 0.1088899 202 195 193 255 
0.68449 0.9912969 0.02777991 254 255 255 255 
0.6668899 0.975133 0.01607999 254 255 255 255 
0.67821 0.980452 0.03028997 254 254 254 255 
0.6720202 0.970256 0.03109011 254 255 254 255 
0.05909014 1.033935 0.1032201 136 118 112 255 
0.1902301 1.008554 0.1276899 254 255 254 255 
0.1805 1.009496 0.12936 254 254 254 255 
0.05237007 1.023689 0.1016899 166 151 145 255 
0.7472003 0.938881 0.03875002 254 254 254 255 
0.2082701 0.994984 0.1132101 255 255 255 255 
0.19874 0.990574 0.11861 254 255 254 255 
0.1713102 0.99439 0.1296099 228 223 221 255 
0.03958011 1.023665 0.1015399 236 232 230 255 
0.65292 0.939771 0.03402003 254 253 253 255 
0.6398699 0.940083 0.03138002 254 254 254 255 
0.6403601 0.939589 0.03388008 254 254 254 255 
0.1876101 0.983032 0.12862 253 253 252 255 
0.17541 0.982708 0.12811 175 159 154 255 
0.1652 0.984132 0.1262601 121 96 86 255 
0.6349499 0.929603 0.03395995 254 254 254 255 
0.6855199 0.901073 0.03529008 254 255 254 255 
0.6227701 0.909088 0.03486999 251 251 250 255 
0.6100099 0.90833 0.03482993 254 254 254 255 
0.6742799 0.88915 0.03868993 254 255 254 255 
0.24719 0.8917199 0.10091 254 255 255 255 
0.2383101 0.89237 0.0976599 255 255 254 255 
