ply
format ascii 1.0
comment VCGLIB generated
element vertex 675
property float x
property float y
property float z
property uchar red
property uchar green
property uchar blue
property uchar alpha
element face 0
property list uchar int vertex_indices
end_header
-0.011699864555548528 0.5328174721779688 0.04119950647336481 255 0 0 255
-0.005693005277093101 0.5390903189695189 0.039137933986284026 255 0 0 255
0.004098227352597627 0.5248593425428091 0.039973206947721614 255 0 0 255
0.012300487469098915 0.528744994398766 0.05693551907365886 255 0 0 255
0.034399123448572384 0.5337209476248275 0.07664079247534228 255 0 0 255
0.030643231817051787 0.528735075668361 0.08835689294142925 255 0 0 255
0.04237306633484652 0.5324424560786158 0.09366300774540148 255 0 0 255
0.03820034234345485 0.53639646889869 0.12079271547223946 255 0 0 255
0.03560094717506624 0.5368696296871186 0.1075764314721458 255 0 0 255
0.0578813378573037 0.533313485455861 0.11213876755490326 255 0 0 255
0.06566971128481927 0.5553155304923761 0.1661431992403858 255 0 0 255
0.09319011261963976 0.5458726611389527 0.16647840341279774 255 0 0 255
0.08992742588959883 0.5514802906665681 0.17522133013238872 255 0 0 255
0.09530916402548528 0.545586441280224 0.19368316885720394 255 0 0 255
0.12344953282648391 0.5375554435169074 0.19695839896503695 255 0 0 255
0.3844019087449262 0.5497417250410919 0.43174771058623335 255 0 0 255
0.35013759200220385 0.566119632651041 0.4936343122604919 255 0 0 255
0.35703569535907886 0.568814686016589 0.5014312294404691 255 0 0 255
-0.6858522188981203 0.7087378594562803 0.18416595049041393 255 0 0 255
-0.6854065398622633 0.7037333824320344 0.17917959381130258 255 0 0 255
-0.68231471157934 0.7103577053899018 0.18460314084073795 255 0 0 255
-0.6765508367456885 0.7099532695322421 0.18644987579335462 255 0 0 255
-0.668329134333801 0.7066118780338193 0.18382613404474693 255 0 0 255
-0.6706457084736405 0.7117595394581836 0.1932617146067421 255 0 0 255
-0.6608382445904699 0.7119465045577369 0.19351506430290413 255 0 0 255
-0.5966475735909437 0.6896038499749783 0.1926167664922564 255 0 0 255
-0.5616165191851783 0.6889171282820287 0.209691835627795 255 0 0 255
-0.5485107994753198 0.6898211807851617 0.19328581241346127 255 0 0 255
-0.5430451817435082 0.6780012715097886 0.1914492289631381 255 0 0 255
-0.5321815478900612 0.6860440036551302 0.14436632919482054 255 0 0 255
-0.5106526041804891 0.6710685513626261 0.17364541399252414 255 0 0 255
-0.49348702670466144 0.6702103612319095 0.1873593438873689 255 0 0 255
-0.4701085313778615 0.6801060601598675 0.07622186822273722 255 0 0 255
-0.4539856283604028 0.652806630895721 0.21635322155232994 255 0 0 255
-0.09530076840063174 0.5405641257112289 0.052486379922724494 255 0 0 255
-0.03216209607390332 0.5128001175197384 0.0042509928830235105 255 0 0 255
-0.0278996493310752 0.5246805331792126 0.028547276357009807 255 0 0 255
-0.004169158581735241 0.5201532717228972 0.03632996460381503 255 0 0 255
0.005265510818240534 0.5125501144230966 0.04362775019954053 255 0 0 255
0.026956742190013493 0.5154765186217257 0.0767032612561723 255 0 0 255
0.004419896687629668 0.5328450171973885 0.09481819394134469 255 0 0 255
0.035189817963843226 0.5217962080051359 0.07398532478415137 255 0 0 255
0.029444351805942376 0.51886782395812 0.08955072961575894 255 0 0 255
0.04265737208781939 0.5146369883342528 0.08093905682620711 255 0 0 255
0.01797196456524854 0.5314237348083507 0.11113583283303465 255 0 0 255
0.016662621550960002 0.5304809610134545 0.10645123906895916 255 0 0 255
0.04527226674466361 0.5217750740324825 0.11079712311405707 255 0 0 255
0.06044384474122565 0.5276905781660695 0.14469433259702003 255 0 0 255
0.048728858320539505 0.5525277379199481 0.15755647848483173 255 0 0 255
0.07996314628525353 0.5287945190737038 0.15399786030145046 255 0 0 255
0.060872578361103186 0.5478861015739379 0.16884750159453202 255 0 0 255
0.0848734491557781 0.5362712877153695 0.1666639191096372 255 0 0 255
0.08175551170220895 0.5423939726382101 0.1743683844510267 255 0 0 255
0.09805483331908552 0.5350986126863131 0.1731094765766847 255 0 0 255
0.09425930663817106 0.540357225372626 0.18059885315336963 255 0 0 255
0.10764742403812855 0.5330315551378277 0.2022723186610936 255 0 0 255
0.3379378025024118 0.5447820608010913 0.4387769682884141 255 0 0 255
0.35736742929898946 0.5458120147986626 0.44779839775265995 255 0 0 255
0.37750507242446024 0.5457922568251523 0.4534254884969718 255 0 0 255
0.36884277205162624 0.5370203389377152 0.4516979474380307 255 0 0 255
0.3697611567408967 0.5464411601731296 0.4866175730064762 255 0 0 255
0.3655673888345873 0.5445597115856434 0.4831551585521513 255 0 0 255
-0.6773931803036578 0.696780328611298 0.18951327255790923 255 0 0 255
-0.628613430245074 0.6847582367722886 0.18662414279201564 255 0 0 255
-0.5970398588173548 0.6786956835808732 0.19815404026760608 255 0 0 255
-0.5838301679880109 0.6838060526142471 0.1973005872222283 255 0 0 255
-0.5772074545209329 0.6749656145779565 0.20193009805931073 255 0 0 255
-0.5655209965870146 0.6755919363126849 0.1936971658115628 255 0 0 255
-0.554963835422153 0.6773353810158976 0.1933494821981671 255 0 0 255
-0.5391883892575307 0.6712648079260068 0.14441155406959869 255 0 0 255
-0.5212307736476434 0.6702890763574159 0.2057781096450681 255 0 0 255
-0.5014614164092408 0.6581824571797428 0.17172633014840027 255 0 0 255
-0.10319397026048409 0.5315000459753828 0.05210580304852072 255 0 0 255
-0.0751633467765937 0.5202030521356285 0.019170738977315905 255 0 0 255
-0.06001225900448647 0.510735941447919 0.021238622750498964 255 0 0 255
-0.04795616599169381 0.5081041479736782 0.027663244010523308 255 0 0 255
-0.037778050672657645 0.5126258801415524 0.035647803471876016 255 0 0 255
-0.024657500390667147 0.5104215506541648 0.03107585544200993 255 0 0 255
-0.00040457681502110987 0.5042434329395057 0.052905642655220124 255 0 0 255
0.033932376110951214 0.5057984328584549 0.08253811283111477 255 0 0 255
0.034213417508633055 0.5113317419081006 0.07372269905639967 255 0 0 255
0.04274976718986802 0.5084768785583029 0.08602227559265126 255 0 0 255
0.03263201743167539 0.5208619705908065 0.10801010039766956 255 0 0 255
0.019332587598258358 0.5225422386305361 0.13365331456557797 255 0 0 255
0.04912707305987876 0.5186538412852026 0.15023369042131812 255 0 0 255
0.04483356403196034 0.5278708461189217 0.1405909049880289 255 0 0 255
0.046252837290570246 0.5296353356770359 0.1690177930655257 255 0 0 255
0.0660092256181417 0.5171187074611245 0.15111446423792899 255 0 0 255
0.07415662909942218 0.5192981120500617 0.15678294612912286 255 0 0 255
0.07292571910627732 0.5285540706072326 0.16932507690279877 255 0 0 255
0.07870823263715412 0.529773519621126 0.17632189935642428 255 0 0 255
0.24034543658612287 0.5437027055538252 0.461099512698087 255 0 0 255
0.31244507119639836 0.5336258474998214 0.43567611873946194 255 0 0 255
0.3175067707818658 0.5323348013200654 0.43280409851928064 255 0 0 255
0.3364934300394083 0.5262135844841707 0.40792230523396134 255 0 0 255
0.344078451896084 0.5261888168693122 0.4125980729971318 255 0 0 255
0.35272240209040095 0.5281850949282205 0.42047281443387674 255 0 0 255
0.36223514301183596 0.5285449118018372 0.4242342333272809 255 0 0 255
0.35861716246519953 0.5288168117370498 0.4589576275490698 255 0 0 255
0.37412152947901456 0.5386778915531384 0.4716191495321823 255 0 0 255
0.36976307039325873 0.5331554862591695 0.48617627465944724 255 0 0 255
0.3858163375650032 0.5264478442630568 0.46768341539994296 255 0 0 255
0.36569289692321894 0.5359612521340896 0.4932163397883138 255 0 0 255
-0.646522207969566 0.6772225774934851 0.18697471024743595 255 0 0 255
-0.590720242263471 0.6746059343916124 0.2042890363926427 255 0 0 255
-0.5730705783945927 0.6655376546713662 0.20705737919896805 255 0 0 255
-0.5617675422271798 0.6660581808717176 0.20192645293398406 255 0 0 255
-0.5507804036768232 0.6667702982989883 0.1933848567529855 255 0 0 255
-0.5307706133420552 0.6595976666906939 0.17520843480141285 255 0 0 255
-0.5182187559056743 0.659214892745753 0.1736828378697816 255 0 0 255
-0.4957875219459309 0.6472447048676323 0.20180814946212125 255 0 0 255
-0.49519541815830703 0.6483500461138775 0.1704306623030426 255 0 0 255
-0.47453185797821873 0.6502210836034901 0.19029514993883423 255 0 0 255
-0.09151006659091579 0.5144821439421234 0.025208911457155373 255 0 0 255
-0.0773719742376673 0.510671256854903 0.034376047592785855 255 0 0 255
-0.07065182023094158 0.5192354081266108 0.057052439247040676 255 0 0 255
-0.04013511285160594 0.48649260815378936 0.018834570750791316 255 0 0 255
-0.04595465323541027 0.5047466014343188 0.04411213752874938 255 0 0 255
-0.025062073108480423 0.48122362542316716 -0.013519403572613456 255 0 0 255
-0.037470491483096335 0.49864900910323356 0.040646322284050934 255 0 0 255
-0.020553909860894587 0.5044702512118263 0.046204641420751105 255 0 0 255
0.0003451330252414349 0.5047372311591126 0.09441981088902748 255 0 0 255
0.01497026331913432 0.5122614384276633 0.11267984307663553 255 0 0 255
0.040797151451823305 0.5050143379382079 0.12467081307824095 255 0 0 255
0.0226368928936218 0.5222770258304212 0.14843817095949902 255 0 0 255
0.050779419528890216 0.504510414639197 0.145610622775128 255 0 0 255
0.03841551360203392 0.5153880640488689 0.16856456826681768 255 0 0 255
0.04618483472141642 0.5211465313054157 0.1770657739713551 255 0 0 255
0.07119549568848954 0.5190758330188173 0.17565216285398116 255 0 0 255
0.0883532253046537 0.5123971787308963 0.17036590948058705 255 0 0 255
0.08272325318488018 0.5183960974107764 0.1871539965770893 255 0 0 255
0.19654371740867577 0.5354798406065803 0.341898880792815 255 0 0 255
0.208247874128512 0.5243505075710977 0.3508395012970769 255 0 0 255
0.21771131610341968 0.5233451250293603 0.3506077506584804 255 0 0 255
0.2149928322068389 0.5256603500587207 0.35558540131695976 255 0 0 255
0.3319998368357357 0.5156461881314989 0.40951054796703706 255 0 0 255
0.3315586003945412 0.5208327753373413 0.42737619966069096 255 0 0 255
0.3563083915329911 0.5209171618521132 0.42423561591162895 255 0 0 255
0.35043370407925817 0.519551374289848 0.4561975873422959 255 0 0 255
0.36763203570085784 0.5193167784946993 0.4543423490534762 255 0 0 255
0.36883243214559114 0.5270293710983422 0.4723782815168281 255 0 0 255
0.377554019761155 0.524591221622746 0.46188008107726475 255 0 0 255
0.3707718779442105 0.5187703076543534 0.48060275855268664 255 0 0 255
0.3722660389721051 0.5189402038271766 0.48078637927634316 255 0 0 255
0.3721241903041979 0.519561263302059 0.48237049262713194 255 0 0 255
0.3756831376887966 0.5264592090083997 0.49633442760396385 255 0 0 255
-0.6524506603883116 0.6755430544028446 0.17365579745799142 255 0 0 255
-0.6607672449822932 0.6753356965218689 0.17124282654470802 255 0 0 255
-0.6270016787396908 0.6666935810645285 0.19372964630728007 255 0 0 255
-0.6262969149587632 0.666494724258114 0.1908084852291203 255 0 0 255
-0.58478184599021 0.6652344035986409 0.20717572821302976 255 0 0 255
-0.5655555540176654 0.6548675739698567 0.20270286159944487 255 0 0 255
-0.554162856088868 0.6547329803014863 0.20148103651752236 255 0 0 255
-0.5343164591648074 0.6429518411180504 0.1998145471145938 255 0 0 255
-0.537719689089046 0.6548900299230286 0.2391700085943473 255 0 0 255
-0.5000283583948747 0.6355768026436402 0.17284683602395165 255 0 0 255
-0.3277849229193792 0.575528807507931 0.11104469283885017 255 0 0 255
-0.25289418698939853 0.6581996395333928 0.17831602735963986 255 0 0 255
0.026759552399619836 0.4888052344430617 0.057399112041626586 255 0 0 255
0.004060428993462012 0.49178022808946464 0.07979450882437747 255 0 0 255
0.03266948497186599 0.48774475337855583 0.08992243420743366 255 0 0 255
0.008231732952983403 0.49430254061859297 0.11931508974064974 255 0 0 255
0.01583890736129301 0.5028444078242185 0.13135180634364224 255 0 0 255
0.01842909855459204 0.4972715457389455 0.14528814267826967 255 0 0 255
0.020867753635887897 0.5076215616139239 0.14900115172440215 255 0 0 255
0.052429431822370455 0.4917641470115479 0.1411487253322824 255 0 0 255
0.04000039915792544 0.49639785218476085 0.14878790531651795 255 0 0 255
0.03330202815636314 0.5046820116178826 0.16941669918243174 255 0 0 255
0.05567378667429117 0.5023104235632614 0.16617042376033916 255 0 0 255
0.07424378235964207 0.49625429222957745 0.1747461413710333 255 0 0 255
0.08848442478494888 0.5028043968422143 0.19157022568290652 255 0 0 255
0.1122250324015101 0.5135297527981386 0.25299314793445965 255 0 0 255
0.20429123553110512 0.5121588329778388 0.34658926074344176 255 0 0 255
0.19981100219820952 0.5223193104155728 0.3430379113939599 255 0 0 255
0.21271405287241657 0.5145864958116644 0.3539431547774187 255 0 0 255
0.21184777125636942 0.5174249565514965 0.36298587661035575 255 0 0 255
0.26533625956476253 0.5184113427304042 0.40952158047675175 255 0 0 255
0.23659568559719818 0.522026981779725 0.46622465957428805 255 0 0 255
0.3369009253738457 0.5030418791344391 0.3677078509305403 255 0 0 255
0.30841603297732134 0.5163652837846293 0.4204914443327777 255 0 0 255
0.32950277497070113 0.5040232858572761 0.4094076673827281 255 0 0 255
0.3444268706436318 0.509911009713121 0.41980616850150254 255 0 0 255
0.3443345457064067 0.5084163341363319 0.4569633323162593 255 0 0 255
0.35460226166910314 0.5126519449611552 0.4255947150808688 255 0 0 255
0.3579614390774763 0.5096468974067705 0.45987624466650867 255 0 0 255
0.3633726781549537 0.5089337948135378 0.45414248933301926 255 0 0 255
0.36312633282245044 0.5147113929263579 0.47424413261448084 255 0 0 255
0.37307263614516334 0.511824711629877 0.4611483929305677 255 0 0 255
0.36493503128980115 0.5149258717054309 0.47251653045792313 255 0 0 255
0.3654284871140197 0.5154129785382614 0.473078823786694 255 0 0 255
0.36878903985360506 0.5180276920253116 0.4830019101978071 255 0 0 255
-0.6567572468644558 0.6634956221335067 0.15179631708152141 255 0 0 255
-0.6732681208962973 0.664328504970355 0.17779792175719702 255 0 0 255
-0.6631006535609758 0.6649266981561778 0.18514909632855758 255 0 0 255
-0.6487670000569329 0.6654327578655335 0.1757544294078445 255 0 0 255
-0.6356701475716166 0.6578139631882036 0.20839571209221078 255 0 0 255
-0.6453395109081272 0.6540299759940652 0.18638263892299625 255 0 0 255
-0.620358958878401 0.6569612029706392 0.19881701585515033 255 0 0 255
-0.6204016710272079 0.6571096237651141 0.19467532684120248 255 0 0 255
-0.6058176550674426 0.6593453715709126 0.20175690437481908 255 0 0 255
-0.5720879289527413 0.6430426586771838 0.20612867962405707 255 0 0 255
-0.559108482740416 0.6431495436106416 0.20784623198372215 255 0 0 255
-0.5596794619233304 0.6432663488851327 0.20097075586977736 255 0 0 255
-0.547076964149108 0.6430342095650362 0.19988660297497945 255 0 0 255
-0.546659241037277 0.6435360773912594 0.20575175074374485 255 0 0 255
-0.5245146877781586 0.6337002606015116 0.1901815218867758 255 0 0 255
-0.5103345450688691 0.6345743691454138 0.19721508190646117 255 0 0 255
-0.4773002313895731 0.6229785015308472 0.20470973606912532 255 0 0 255
-0.47980819941798725 0.6231702861640711 0.1926872553841522 255 0 0 255
-0.4912038755165053 0.6242149852255408 0.19633394771496868 255 0 0 255
-0.4582594066753662 0.613001957191498 0.2000778610101881 255 0 0 255
-0.0008102198699347328 0.48284757786968246 0.1013888810899564 255 0 0 255
0.015036932863310795 0.4746454242230406 0.10454138989740384 255 0 0 255
0.012219409468988422 0.49026596025987 0.130824617907588 255 0 0 255
0.034656934992333056 0.48928794368115947 0.1448502499031812 255 0 0 255
0.047901757027069586 0.48178119770483485 0.14063162783740396 255 0 0 255
0.04804434553183133 0.48838909429078 0.1538632924291063 255 0 0 255
0.047754286288809164 0.49350371593160675 0.16681083588687856 255 0 0 255
0.0798509426451107 0.4938466092884534 0.18652893177594004 255 0 0 255
0.0946925428131236 0.4986362539031931 0.225146165005007 255 0 0 255
0.11505693463072203 0.48965718839578826 0.23401649809914854 255 0 0 255
0.10329850518317932 0.5111486238737276 0.2496150765357158 255 0 0 255
0.11200351788133292 0.5100493504999015 0.28480897626126045 255 0 0 255
0.1123962879504371 0.5069458937690022 0.2904588099078275 255 0 0 255
0.19022573200102139 0.5070395066498152 0.3299658672498681 255 0 0 255
0.18397770661230745 0.5060953092353921 0.36357390108011256 255 0 0 255
0.19329775018540485 0.5108523597546817 0.3427484186990589 255 0 0 255
0.2017356060595077 0.5014353761101552 0.35060622715536555 255 0 0 255
0.20645723717867123 0.50705510237807 0.3612054573063346 255 0 0 255
0.3414715776426632 0.5031640134204877 0.4385561985925727 255 0 0 255
0.33301327430133326 0.5060253410443902 0.4520210343310179 255 0 0 255
0.340087097512891 0.4970105397477974 0.4569979732559019 255 0 0 255
0.35887983041980986 0.4967629757753418 0.4538361855454212 255 0 0 255
0.35876785545126133 0.5024946530792309 0.4720081128524165 255 0 0 255
0.35888156133284493 0.503604999385138 0.4724252979529053 255 0 0 255
0.3642427652477472 0.5018530113121572 0.466719682735378 255 0 0 255
0.35003318274862416 0.5089331773448397 0.4862528642607282 255 0 0 255
0.3769172972185109 0.5015273980570076 0.4680370430221317 255 0 0 255
0.37534679468623044 0.5056470640707272 0.4785101115063398 255 0 0 255
-0.6801950661897753 0.6552626852328681 0.18381413062504368 255 0 0 255
-0.6676278207333344 0.6538847718549253 0.17567533786951253 255 0 0 255
-0.6562462738589745 0.6530008913559311 0.17251002964630774 255 0 0 255
-0.6416544807135219 0.6466431216117918 0.20713464743917398 255 0 0 255
-0.6277271284871341 0.6427405233269473 0.20572268596735907 255 0 0 255
-0.6173964812303022 0.6463086942797647 0.20713116971555723 255 0 0 255
-0.6083522135955117 0.6408346148700302 0.22044130770058415 255 0 0 255
-0.5850292493951381 0.6419637838567367 0.20606969714479306 255 0 0 255
-0.5655860543784569 0.6321430657152411 0.20677628008927632 255 0 0 255
-0.5531659674403157 0.6320518185560385 0.20468977879787742 255 0 0 255
-0.5528390724204704 0.6326249657411872 0.20864607994711298 255 0 0 255
-0.5511758345936736 0.6315766095451001 0.21005237962333137 255 0 0 255
-0.5528690724204703 0.6323948657411872 0.20894607994711298 255 0 0 255
-0.5482725095408867 0.6338659589933388 0.20561803136614132 255 0 0 255
-0.5293565900808367 0.6235842566713361 0.20545832595349645 255 0 0 255
-0.5055947852955786 0.6234358772996149 0.2016097502075576 255 0 0 255
-0.5165509870209323 0.6235500778227692 0.19907002239188126 255 0 0 255
-0.4845813618036019 0.6132928433665048 0.1963447950005489 255 0 0 255
-0.4723993345730522 0.6128711628247722 0.19403175467062755 255 0 0 255
-0.43990422673897533 0.6024800024417196 0.18131337649077484 255 0 0 255
-0.4251548265424969 0.6068083410631537 0.158647204664206 255 0 0 255
0.06847180192989785 0.39730532417587733 -0.1336311314180256 255 0 0 255
0.019025461424668398 0.4628360176990079 0.11205916857463676 255 0 0 255
0.02889410041027991 0.48499816143197366 0.13337118497382014 255 0 0 255
0.03723162284375937 0.4708719248901415 0.12823649987284383 255 0 0 255
0.031128533642874684 0.4732263350160221 0.12260538060670706 255 0 0 255
0.047234192352133955 0.47767525653695936 0.15131540213648237 255 0 0 255
0.05225755104963628 0.48087246075013906 0.2305882750199979 255 0 0 255
0.09892858334808721 0.47908899611090716 0.22488814613312805 255 0 0 255
0.10610685141935366 0.4791241318255993 0.23453832144365303 255 0 0 255
0.10665022273470787 0.49014791382207656 0.2588310547641501 255 0 0 255
0.11273546538192598 0.4807401009433567 0.24322587556244848 255 0 0 255
0.11650902997142906 0.5035565871225369 0.27395221338250975 255 0 0 255
0.11804134634876311 0.49522204248739976 0.28540761578658147 255 0 0 255
0.14184965148284334 0.4807154166891123 0.2907256695166523 255 0 0 255
0.15158612107369104 0.4947610517659717 0.3173876075043791 255 0 0 255
0.17170069753753958 0.48551953483184584 0.3153591529179573 255 0 0 255
0.15763123555394934 0.49681216912728976 0.3175025784018484 255 0 0 255
0.1787885510428918 0.48718333187030116 0.324945731357805 255 0 0 255
0.17328335002621176 0.5007289726088047 0.33914870493170546 255 0 0 255
0.18042734876668876 0.4909055112080814 0.34074034459532665 255 0 0 255
0.19062594788539186 0.4984493876647262 0.3385627924443409 255 0 0 255
0.19124985486554974 0.49938735163883907 0.3433173474882868 255 0 0 255
0.16336216401688453 0.5014121981023385 0.36793554972556114 255 0 0 255
0.19387245089716498 0.48971044271661457 0.3498442009162061 255 0 0 255
0.17862325439566126 0.49423982952542483 0.361336596624846 255 0 0 255
0.17554752732300127 0.49085248359467576 0.3825810934163152 255 0 0 255
0.21334815463334317 0.49629631336286534 0.3691195220798988 255 0 0 255
0.21677763141972442 0.5009613540456876 0.3782998922560044 255 0 0 255
0.11046444861665991 0.4980577444881152 0.4612604076918141 255 0 0 255
0.2130231353792724 0.5042572568136251 0.38378392939133527 255 0 0 255
0.327513859734557 0.47949975478662943 0.36594114652876886 255 0 0 255
0.276066310353211 0.49001260276109887 0.430036660291962 255 0 0 255
0.3205998028478124 0.49133099149632364 0.44382740836802964 255 0 0 255
0.33797671927130557 0.49110269259135875 0.43943247305531086 255 0 0 255
0.34438703730033887 0.4821607183911553 0.44703884599995014 255 0 0 255
0.3372142334897283 0.48613867232090674 0.45911522387359455 255 0 0 255
0.3449662911530109 0.4890492630821453 0.46514958140467727 255 0 0 255
0.3549374334579879 0.4851818309036984 0.4534672102218157 255 0 0 255
0.36467013274062016 0.48888400003815086 0.46045666504417965 255 0 0 255
0.3454147435623451 0.4977179041443969 0.4883379870327934 255 0 0 255
0.37480798691334133 0.4922606219271589 0.46896297099237266 255 0 0 255
0.3664426357540812 0.49576837614452435 0.4824624362478591 255 0 0 255
-0.6629525833842332 0.6453833032040204 0.18203205183107507 255 0 0 255
-0.6343201253334313 0.6395789633729356 0.21044019478274828 255 0 0 255
-0.642206441127488 0.6326127876648769 0.20695811615613338 255 0 0 255
-0.6224862497700195 0.6209902749974188 0.2049908336057477 255 0 0 255
-0.6048172008340569 0.637561365916933 0.21514515282172797 255 0 0 255
-0.6199617897606747 0.6403062120936438 0.2312251756096318 255 0 0 255
-0.5570144206603341 0.6239398305732616 0.22219687858296916 255 0 0 255
-0.5415273518290015 0.6230263678103363 0.21055217318228817 255 0 0 255
-0.542679126466443 0.6230330518781513 0.21673877775649028 255 0 0 255
-0.5418768366166382 0.6236775971245878 0.21056721272829132 255 0 0 255
-0.5186748054436832 0.6128831165378903 0.2235785085785992 255 0 0 255
-0.5338451470799083 0.6137421934016378 0.21317161442329058 255 0 0 255
-0.5375862947866376 0.6097852940717617 0.20652867575001876 255 0 0 255
-0.5101409163626967 0.6129414508686755 0.20293331818987484 255 0 0 255
-0.4782718011965094 0.6019311066004287 0.1987164375255738 255 0 0 255
-0.4914773752563412 0.6016834409701584 0.20128506346955952 255 0 0 255
-0.4654465447881738 0.6021458058243638 0.19699593603847884 255 0 0 255
-0.44560200914006576 0.5900690403931317 0.19304058317475298 255 0 0 255
-0.4123389730077478 0.5792108902316482 0.18436555167208657 255 0 0 255
0.06246810770406761 0.3752430624579439 -0.1948165818619289 255 0 0 255
0.060288414316820374 0.3815508619221845 -0.14270165032319948 255 0 0 255
0.00970498070037194 0.4618792427358903 0.12707041717418635 255 0 0 255
0.029864809970610556 0.4616113983500411 0.12024255819290434 255 0 0 255
0.018123499875079628 0.4728456432150335 0.14534960751388243 255 0 0 255
0.10306509751243577 0.4485038415822026 0.2191808638329089 255 0 0 255
0.08898036745615512 0.4744449215060033 0.23364062971300145 255 0 0 255
0.10884281005835099 0.4489835970256196 0.24176111810578169 255 0 0 255
0.0627042862652067 0.5041830225394978 0.2784770356045229 255 0 0 255
0.10755021640699831 0.4726143087175562 0.2654218059103782 255 0 0 255
0.10529265869026776 0.5009683772321135 0.2801733705608638 255 0 0 255
0.11313123808046444 0.48804866916014245 0.276181055951812 255 0 0 255
0.12213391275854998 0.4677553576540713 0.27931148490440955 255 0 0 255
0.1192678182547902 0.49352247655097226 0.30744986727800305 255 0 0 255
0.12405676764708849 0.4860526277722712 0.30568821140125846 255 0 0 255
0.14226610441691517 0.47731590680247504 0.30461008516380034 255 0 0 255
0.15580667684132543 0.4731475382932293 0.3054902982096599 255 0 0 255
0.15775185760428173 0.4864237108281274 0.3126943902229786 255 0 0 255
0.1611111468375878 0.47476407334362436 0.31428733027899597 255 0 0 255
0.1728599922947448 0.4757642495103503 0.32127749823228235 255 0 0 255
0.15917153212826465 0.488218967944832 0.33462566410413774 255 0 0 255
0.18341561568915843 0.47575996323082004 0.32971985491585265 255 0 0 255
0.19163771208980476 0.47663734463135715 0.3405972842937674 255 0 0 255
0.18107107119965263 0.4894057661714519 0.34237580480530927 255 0 0 255
0.19170022221287236 0.47731606073790556 0.35589488914370576 255 0 0 255
0.19466035659794337 0.4834629857087582 0.37802951233138526 255 0 0 255
0.21001509376493058 0.48759465821652426 0.3806467646706642 255 0 0 255
0.22048224079765708 0.4890298010622607 0.38816860732414715 255 0 0 255
0.2305875106818698 0.4830635879502948 0.39075271085464863 255 0 0 255
0.2677091558020694 0.47810190667392544 0.4033541038935362 255 0 0 255
0.2924105348297979 0.47952039983492545 0.3848515323707158 255 0 0 255
0.3078344467070081 0.47551879878610037 0.43656165574083955 255 0 0 255
0.31716278427555455 0.47926751522377947 0.4436525296681458 255 0 0 255
0.3265842105326132 0.4778783129824582 0.4332625661282955 255 0 0 255
0.32137767434159104 0.48047016187982067 0.44536891866413475 255 0 0 255
0.32849037163769584 0.48289679907018823 0.449145539367566 255 0 0 255
0.33414916924840954 0.47515633887073244 0.461380868736488 255 0 0 255
0.344426300455024 0.47852496400056194 0.46697378106569426 255 0 0 255
0.33305110843222746 0.48700114253048266 0.5029740008311789 255 0 0 255
0.35682669066920697 0.4831537556217962 0.4813162564549138 255 0 0 255
-0.6895539792649764 0.6430268097501951 0.25829518409067337 255 0 0 255
-0.586184085569222 0.625248464336696 0.22594332091832126 255 0 0 255
-0.5580362405545474 0.5992562392628125 0.2098570728212318 255 0 0 255
-0.5463577713189526 0.608875662568844 0.2181336175378427 255 0 0 255
-0.5498989499695625 0.6090191955852793 0.20833583007174655 255 0 0 255
-0.5311411643719532 0.6020190614831397 0.20553413704929854 255 0 0 255
-0.5176634285162136 0.6028117298130549 0.20253399151227697 255 0 0 255
-0.5044501129374339 0.601630201741186 0.20270350007071622 255 0 0 255
-0.48490323505766664 0.5900590559410821 0.20166541670189647 255 0 0 255
-0.47223103793342297 0.5902794029460545 0.1974504856048687 255 0 0 255
-0.4520448713780053 0.5787259657426332 0.19355455003460162 255 0 0 255
-0.4587247884782705 0.5900813609133455 0.19505585175717674 255 0 0 255
-0.43749548450437054 0.5792995553461344 0.1943837873117033 255 0 0 255
-0.4240131175059701 0.5793123429836265 0.19133932286821428 255 0 0 255
0.025220977207516905 0.37396442268703667 -0.14833734671423124 255 0 0 255
0.04301899442961105 0.38367455232559605 -0.13998045865249273 255 0 0 255
0.019772729702628826 0.43339135446334814 -0.017586637335571094 255 0 0 255
-0.07129481456842586 0.4939613990476778 0.20254559157158236 255 0 0 255
0.10408836785325923 0.45091208095524493 0.2620512496394024 255 0 0 255
0.12104883465353436 0.4582524334115579 0.2873078004260597 255 0 0 255
0.10896202047973683 0.4795083203240061 0.3135869809045811 255 0 0 255
0.09353829601317437 0.5006749653984763 0.35801653869537337 255 0 0 255
0.134515650450022 0.4720004602404528 0.31093118519395296 255 0 0 255
0.14176790249945187 0.47147033759131673 0.316060085457277 255 0 0 255
0.16611840023777996 0.4659807380575238 0.3164961930095617 255 0 0 255
0.17853900310006854 0.47037380815781027 0.3246255631602299 255 0 0 255
0.15747973657701733 0.48114858677975897 0.36020296655139733 255 0 0 255
0.19416566109268818 0.46478287015297404 0.34458657329940146 255 0 0 255
0.18842974138033344 0.47402542876574616 0.39631177928498085 255 0 0 255
0.2098142086378966 0.4782228446742937 0.3947602819071416 255 0 0 255
0.20329807072272554 0.47206985367190385 0.41490738860877635 255 0 0 255
0.24551603915967704 0.4728226920424409 0.39313444389886953 255 0 0 255
0.29616041045301295 0.46498934014396787 0.34892918399638884 255 0 0 255
0.26713708373374107 0.47549140988644456 0.4252686719103417 255 0 0 255
0.28247444420951495 0.47345729679798304 0.42283591816015414 255 0 0 255
0.3219247996797303 0.46580490565316524 0.4067141426745009 255 0 0 255
0.3027121749799834 0.472196462853323 0.43103650891715645 255 0 0 255
0.30068304374499577 0.4717940407133304 0.4299565272292891 255 0 0 255
0.3139243757809052 0.4620665664747488 0.42620470218137557 255 0 0 255
0.32420924946162727 0.46532497248795857 0.43665883063759864 255 0 0 255
0.3224712654015847 0.47258132822164706 0.4548690539737384 255 0 0 255
0.3261037320028362 0.4720883982731107 0.4527473510748158 255 0 0 255
0.3255244919425453 0.4693794630554602 0.44586742095880777 255 0 0 255
0.3308693701836055 0.47502705429905506 0.4595204119587566 255 0 0 255
0.33685039689197305 0.4666691808939147 0.462155504547879 255 0 0 255
0.3293386263929441 0.46818503403805756 0.4815231984873511 255 0 0 255
0.30987262199178206 0.47854773699948616 0.5278369071394106 255 0 0 255
0.3512777378257327 0.47008456428051015 0.47720315977600314 255 0 0 255
-0.5520786664734829 0.6014036347674935 0.2194385110219324 255 0 0 255
-0.5448702071966213 0.6011956666752042 0.21237191142484976 255 0 0 255
-0.49915767160065005 0.5889887730725134 0.1949098078150411 255 0 0 255
-0.47915828967305885 0.5768532569734931 0.1929805320871659 255 0 0 255
-0.44596382161621706 0.567523168981872 0.19480404342588942 255 0 0 255
-0.43158475549643555 0.567306399727325 0.1922932484194765 255 0 0 255
-0.4117470115291138 0.5562984627791991 0.18960527663767374 255 0 0 255
-0.4178286713912744 0.5679269658608189 0.19077995154913077 255 0 0 255
-0.08851636138833316 0.48788838813864466 0.1998982075791073 255 0 0 255
-0.07295465692848521 0.4882054920401952 0.21107940005616166 255 0 0 255
0.14097211838226467 0.46006771770219906 0.3179570801741627 255 0 0 255
0.139215320813924 0.46998086997965516 0.31163482141388094 255 0 0 255
0.13085764534388278 0.4694140338574897 0.3158262004953749 255 0 0 255
0.15160347675231806 0.46392567993818246 0.326619843648582 255 0 0 255
0.17274195544745105 0.4619907734956506 0.3306506787426003 255 0 0 255
0.1819504822659974 0.4530880190604222 0.3262566786961411 255 0 0 255
0.16891692368808708 0.4546850669726057 0.3149046005356589 255 0 0 255
0.1754597013243384 0.46683530767080667 0.3402434019548484 255 0 0 255
0.17961966858820702 0.4577554526880691 0.34615012889566904 255 0 0 255
0.16069893932175613 0.47563616784965396 0.3680358142975785 255 0 0 255
0.1978595835461717 0.4510191151423508 0.34942299740925586 255 0 0 255
0.20208731585328632 0.4669125026383058 0.3644534446439061 255 0 0 255
0.19122502527138524 0.4708414160993581 0.39991211814420125 255 0 0 255
0.2284140754921069 0.4602409317953431 0.38525472119692805 255 0 0 255
0.2223725074301046 0.4553043298862622 0.3769342588088487 255 0 0 255
0.2516275725786424 0.46126157750757146 0.3990599043641303 255 0 0 255
0.2680886376102513 0.45870503633891796 0.3917701055392444 255 0 0 255
0.26033982494932334 0.4624398406817613 0.4031588967220424 255 0 0 255
0.284289406201088 0.4557059839670398 0.3857108517331908 255 0 0 255
0.2873076234728907 0.4596230373532882 0.40567603207151337 255 0 0 255
0.33099245842033076 0.43478520152208905 0.3789717973361628 255 0 0 255
0.3061136295797506 0.45684552705248666 0.41835516850191196 255 0 0 255
0.3124962953948818 0.451334771885907 0.42835029713716183 255 0 0 255
0.30963694757530064 0.45617111502267865 0.44459464865309806 255 0 0 255
0.32257092513626756 0.4595422407777169 0.45226859938482383 255 0 0 255
0.3292638485458776 0.46209965112496526 0.45589928939427377 255 0 0 255
0.32989532686812634 0.46386442522839844 0.4612843456158012 255 0 0 255
0.31656497384391735 0.4597758460245726 0.49499749308025015 255 0 0 255
0.33700092246926705 0.4596064500653561 0.47655587681803424 255 0 0 255
-0.5621943221656499 0.5897429295310493 0.21694642201335118 255 0 0 255
-0.5068676312532215 0.5768049240549452 0.1974832012239742 255 0 0 255
-0.49371471764234415 0.5766043965717184 0.19481275297230327 255 0 0 255
-0.48763495756955516 0.5612017943543476 0.1883595095797148 255 0 0 255
-0.47802901346527277 0.5626249495345556 0.18875126821571858 255 0 0 255
-0.4631618602214531 0.5655614279141854 0.1935375261743492 255 0 0 255
-0.4400306653907647 0.5550615152704081 0.19378967591887644 255 0 0 255
-0.4251014995039164 0.5554285189935317 0.189911579342677 255 0 0 255
-0.4065706139428565 0.5445848711235015 0.1901885242260948 255 0 0 255
-0.342968771216834 0.5176743939860092 0.14938316616163225 255 0 0 255
-0.329322865613703 0.5216101724274894 0.16004170237817067 255 0 0 255
-0.32010624242746843 0.5133343731283189 0.14543965596586594 255 0 0 255
-0.3151160504214708 0.5217605547407749 0.1599812287023053 255 0 0 255
-0.30890157278041686 0.5124221364041259 0.1645179256487061 255 0 0 255
-0.2958267080502595 0.5115247654749847 0.15651505990631276 255 0 0 255
-0.09140802828456249 0.47765377489791594 0.1970723221803793 255 0 0 255
-0.09240475790870267 0.46761438581544723 0.18924330589368682 255 0 0 255
-0.06100785123861998 0.46201304238326973 0.19176479650795397 255 0 0 255
-0.07557108244739971 0.4783411963677464 0.20904996185870775 255 0 0 255
-0.07677186970392673 0.4754509066746337 0.21337539226957328 255 0 0 255
-0.07031866034289645 0.4717077712975872 0.22011121384138468 255 0 0 255
-0.06575357164111467 0.476813008121872 0.23059007882633448 255 0 0 255
0.15494981328133986 0.45605085878949436 0.33668723609768453 255 0 0 255
0.1678431744639419 0.4432627848460815 0.32110285030738395 255 0 0 255
0.1713252780898241 0.4509701074546558 0.3488197795276717 255 0 0 255
0.1699336799838589 0.4605817298295473 0.34532052335270114 255 0 0 255
0.17198089499596442 0.45580043245738705 0.33956003083817476 255 0 0 255
0.2009530593792615 0.4546140819054102 0.3616211647921225 255 0 0 255
0.15704852545084136 0.4777234864444519 0.4161738306780604 255 0 0 255
0.20547794970585503 0.44469793842889427 0.3689059560413918 255 0 0 255
0.21513924954059857 0.44407637125808147 0.3758776381890465 255 0 0 255
0.22517437839968926 0.44618471860072395 0.38222641089484366 255 0 0 255
0.23519430996052013 0.44995446695605323 0.39213203246909667 255 0 0 255
0.2324634818725325 0.4508370604347534 0.39509075202931854 255 0 0 255
0.24249020862757154 0.45158570174053725 0.4000786142086168 255 0 0 255
0.2502727123407535 0.45323396675364125 0.41026097064520894 255 0 0 255
0.25269430018099037 0.45195865400157026 0.4058073661519567 255 0 0 255
0.2666109608367319 0.45070836530934627 0.40667539711901923 255 0 0 255
0.28967136462940485 0.4450308363571013 0.39079790797411557 255 0 0 255
0.30650385161580973 0.43927589323376304 0.4276183660421425 255 0 0 255
0.3159328194454323 0.44182586737693225 0.4354211672357001 255 0 0 255
0.3168583389064026 0.44765600243469594 0.45256793501845005 255 0 0 255
0.3155355431411181 0.45335342116554345 0.4729246808979076 255 0 0 255
0.47953173680362193 0.5607153043128473 0.9415553312202504 255 0 0 255
0.5368008487200919 0.5418292560484644 0.971938758634312 255 0 0 255
-0.5499849647967885 0.5832844421378919 0.24585804196970037 255 0 0 255
-0.5157926428356949 0.5602660654001337 0.1892978627768415 255 0 0 255
-0.5010700761207487 0.5647090542459778 0.19662901616619158 255 0 0 255
-0.48389303127827277 0.5500084520054837 0.194686557580892 255 0 0 255
-0.45669808859504574 0.5547878639876878 0.19771460625196444 255 0 0 255
-0.46917712483974683 0.5536271140288157 0.19892787237958612 255 0 0 255
-0.44945733402339844 0.5432530895675621 0.19677853035294565 255 0 0 255
-0.43458717941851527 0.5442075095761684 0.1952405633746773 255 0 0 255
-0.4197415190429094 0.5445025150813372 0.19161262841491644 255 0 0 255
-0.4006271302579094 0.5331755478823343 0.18822120193855085 255 0 0 255
-0.37660740724607344 0.5344857378920744 0.18509292784180806 255 0 0 255
-0.33825731412493626 0.5139098012106683 0.17346577555274975 255 0 0 255
-0.32362523297867085 0.5096741881587669 0.1593538399246675 255 0 0 255
-0.31032558107662517 0.5060028718619455 0.14823959731141192 255 0 0 255
-0.1668486359367724 0.4672291166982379 0.15894910413673577 255 0 0 255
-0.1605901355139338 0.4555037330221238 0.13869063962528477 255 0 0 255
-0.13388673934317266 0.4557544229563733 0.12615542744110067 255 0 0 255
-0.07578277814656224 0.4541681899491672 0.17253971853053038 255 0 0 255
-0.09247051070565424 0.4625865004229154 0.18114899336375662 255 0 0 255
-0.09392738935798502 0.45689499469809897 0.18955264159314986 255 0 0 255
-0.12607818837583867 0.46920592747919554 0.1951355214442084 255 0 0 255
-0.065902654949245 0.45821508835872465 0.20262923504513147 255 0 0 255
-0.06462381664179165 0.4636786416247282 0.21237054132370034 255 0 0 255
-0.0675978432835833 0.4623773832494565 0.2123610826474008 255 0 0 255
-0.07055853695097557 0.4596801530525618 0.22099725321829455 255 0 0 255
-0.07300796534436908 0.4662903842679917 0.22968437999438474 255 0 0 255
0.15592915958610157 0.41474587052365264 0.3415088791379297 255 0 0 255
0.08480476103385716 0.48780506653366884 0.4325309020400367 255 0 0 255
0.18105471950240745 0.4499620818102139 0.3635024335711241 255 0 0 255
0.19406872069572054 0.44743988431625076 0.36966494071263906 255 0 0 255
0.2001391621859138 0.4410663810363388 0.3760833594462027 255 0 0 255
0.20251360002137192 0.4395580282648283 0.3875587511899579 255 0 0 255
0.22089061275126937 0.4357488594685436 0.381732766585556 255 0 0 255
0.22957274506121997 0.43638786799501234 0.38970691050083117 255 0 0 255
0.24028670324215753 0.43311300113105405 0.3961539552619184 255 0 0 255
0.24681567128306992 0.4425124405937148 0.4051401234718996 255 0 0 255
0.25677289004660386 0.44244420631944537 0.41189939598262454 255 0 0 255
0.24271075752122995 0.4380075930691505 0.4452211283704671 255 0 0 255
0.2674930891954403 0.44226111407780033 0.4184070190740972 255 0 0 255
0.29114149621812535 0.4342402957497121 0.4186606610269242 255 0 0 255
0.291058646236083 0.42933487629553035 0.4190191854908899 255 0 0 255
0.3104423200539199 0.42522066910506406 0.4161138877600655 255 0 0 255
0.31808049802516825 0.4246442892654413 0.4212671680557346 255 0 0 255
0.3263136196281678 0.4262654366547806 0.42680121626823003 255 0 0 255
0.3110415185893119 0.44401508578101706 0.4730295219421621 255 0 0 255
0.31929741708764964 0.436104403075775 0.4651762208357746 255 0 0 255
0.34839075926567126 0.4409278362273235 0.5026060097983266 255 0 0 255
0.5537808968711133 0.4934292418055489 0.9037411451259679 255 0 0 255
0.5254995146149118 0.5161403573763862 0.9174288407451121 255 0 0 255
0.5560260958402635 0.508829568171184 0.9190778087793171 255 0 0 255
0.5341003743600455 0.5290695780242307 0.9740793793171553 255 0 0 255
-0.4622650270942878 0.5419455031979129 0.20242712842514643 255 0 0 255
-0.47191175995734125 0.5450143561558564 0.21258389028032718 255 0 0 255
-0.4256647837383211 0.5330007111579538 0.19599153875221204 255 0 0 255
-0.42482649400681377 0.5318634945498861 0.19096620689236893 255 0 0 255
-0.4268958514826129 0.5313584684309675 0.19190347338266603 255 0 0 255
-0.4148057602306236 0.5323431263576113 0.18684333822169974 255 0 0 255
-0.3927250463911872 0.5219521219922649 0.19093513809144752 255 0 0 255
-0.3914313335447605 0.521906318957372 0.19234757680995757 255 0 0 255
-0.38031616234040866 0.5234839069863612 0.1917557588822046 255 0 0 255
-0.38047871081162227 0.5223497349527242 0.1872911356770013 255 0 0 255
-0.3724858310588253 0.5118265655177249 0.18395876810765274 255 0 0 255
-0.35426979424403787 0.5151609972554877 0.19193055819253638 255 0 0 255
-0.3496488935671912 0.5143160096824203 0.18091813019517763 255 0 0 255
-0.3430446814866734 0.5016503971743007 0.17588348597043849 255 0 0 255
-0.33104643336676065 0.49987975203968504 0.1651073839158185 255 0 0 255
-0.3039552219255529 0.4976996319675312 0.16019726490990133 255 0 0 255
-0.2860858214366788 0.48606025364053124 0.19697755127412792 255 0 0 255
-0.299895043497372 0.4897822010271516 0.16320123374557338 255 0 0 255
-0.2811596179606331 0.491033843121288 0.14286063812807903 255 0 0 255
-0.25755607981012907 0.4802543280668736 0.15068995295877485 255 0 0 255
-0.2628480737591725 0.47964501141732396 0.14279027161872843 255 0 0 255
-0.2438959739126672 0.4805700057914756 0.1478754801481016 255 0 0 255
-0.15495599179475916 0.44777776826848914 0.11361229739165603 255 0 0 255
-0.09749971576798551 0.45183583299282787 0.20015296101349678 255 0 0 255
-0.07243390522299764 0.4506773613852581 0.211664994144218 255 0 0 255
-0.13084340811078168 0.4596851368726241 0.21049447587972814 255 0 0 255
-0.08414100141869016 0.45651314835639684 0.22839158934605447 255 0 0 255
0.19140440313621562 0.4189599677554266 0.3666917999986804 255 0 0 255
0.202937880197979 0.42569068864899573 0.3781522487603133 255 0 0 255
0.19571161224994724 0.40126774030143975 0.3949871088443739 255 0 0 255
0.21451509372528874 0.4254322868418618 0.38663314412643174 255 0 0 255
0.22026340852757814 0.4307101046357453 0.4011549700229467 255 0 0 255
0.24294876956114145 0.42488665614142956 0.40415028468809944 255 0 0 255
0.25663556949868654 0.42541949908770177 0.4109274683352272 255 0 0 255
0.2659928118567924 0.4246739760603129 0.4214326792276033 255 0 0 255
0.27566877903601467 0.4217231970321573 0.4275361423371091 255 0 0 255
0.2716670108519758 0.4248130292657843 0.4479517793898341 255 0 0 255
0.3126886782310276 0.41560329726722406 0.4207963890312456 255 0 0 255
0.2923687112411096 0.4272939623616 0.4607853157137033 255 0 0 255
0.3303666738276556 0.41232841462089304 0.4341740434420952 255 0 0 255
0.34048584613298766 0.4302429450287303 0.5028989394302394 255 0 0 255
0.5069329103184473 0.5110481560086644 0.8808268063575 255 0 0 255
0.5344271752929008 0.4990266784446977 0.8846407565295957 255 0 0 255
0.511265263469943 0.5201473675967099 0.8944063531167739 255 0 0 255
0.5283703813150964 0.5123330230336057 0.9081242391565145 255 0 0 255
0.5308836951151623 0.5049202856743313 0.9296011077870597 255 0 0 255
0.5123929285198152 0.5132522213086358 0.940937799106626 255 0 0 255
0.5141966731453463 0.5189971996622319 0.953786294993148 255 0 0 255
0.495590313329423 0.5287984042751748 0.9643431085950811 255 0 0 255
0.5290544257918253 0.5215189199055456 0.9854483025692902 255 0 0 255
-0.5077219578629502 0.543214215824367 0.19889251702014094 255 0 0 255
-0.5164414076720603 0.5486727008362057 0.2198148389220455 255 0 0 255
-0.5201228910118556 0.5410128535171602 0.20647609101091388 255 0 0 255
-0.5003016106699608 0.5264897083803486 0.18592143020090782 255 0 0 255
-0.48377325886333816 0.5393917044791036 0.21568926148390002 255 0 0 255
-0.4775366172819278 0.5345425136460404 0.20339576165237827 255 0 0 255
-0.4754891639944472 0.5188982236092426 0.19450789360388526 255 0 0 255
-0.4288042380942441 0.5459813157906068 0.2340267816874521 255 0 0 255
-0.415325733180023 0.5232365830186151 0.19650297990477494 255 0 0 255
-0.4163757331800227 0.5238666830186153 0.19988307990477464 255 0 0 255
-0.3889824021881384 0.5058766686606141 0.185999808089006 255 0 0 255
-0.3816937990935727 0.510530716384823 0.19620001949830415 255 0 0 255
-0.3389856150246421 0.4893737763075376 0.1716073060671307 255 0 0 255
-0.32421844034853253 0.48974123691013544 0.16623031097377056 255 0 0 255
-0.31001930161781843 0.4870223131128038 0.1848587139124583 255 0 0 255
-0.29306601717872643 0.4787537364686102 0.1746502869864085 255 0 0 255
-0.2853234880452305 0.4784725710942541 0.1602342717407847 255 0 0 255
-0.24952008535012635 0.4686104788018291 0.15356662867155324 255 0 0 255
-0.23082223217186573 0.462950715250813 0.1434477549143601 255 0 0 255
0.22216620691651792 0.40843360658613825 0.40856278267797314 255 0 0 255
0.22792371411887488 0.4192605390574417 0.4010647750446839 255 0 0 255
0.07990857741071108 0.4868184577164628 0.6177812506337322 255 0 0 255
0.24999726871914754 0.411959599724277 0.41167229517241727 255 0 0 255
0.2592212684702976 0.4117156690347177 0.42015931884936286 255 0 0 255
0.2693570950631884 0.41583763488366854 0.42867152564162353 255 0 0 255
0.2781235060591645 0.412197425658369 0.43526613412617465 255 0 0 255
0.286576750392018 0.41296151766656564 0.44298205044454436 255 0 0 255
0.2851166503920181 0.41281141766656454 0.44219205044454457 255 0 0 255
0.28859376369749695 0.41417750705189665 0.4554394862350158 255 0 0 255
0.33044788496741506 0.40404515425367993 0.44023765233326534 255 0 0 255
0.3308301994828225 0.41614530277101164 0.48320300205758926 255 0 0 255
0.3510383147606706 0.40664978382777095 0.47273798282332075 255 0 0 255
0.34202084085477186 0.4120952066850171 0.4949675689312668 255 0 0 255
0.3416471718246102 0.4253373892549414 0.5571288048450393 255 0 0 255
0.5114506672192053 0.4863740459927614 0.8882747679616874 255 0 0 255
0.5201636222659679 0.48934764147568893 0.8979476653985194 255 0 0 255
0.5170090917977326 0.49977488348657545 0.9099723977976236 255 0 0 255
0.5203748720783923 0.5072076292770697 0.9189018100873039 255 0 0 255
0.513195882349882 0.4994134688676284 0.9430832539183206 255 0 0 255
0.4948173818074522 0.5091915901666129 0.9510321074935356 255 0 0 255
0.5092024590559526 0.5123912832297762 0.9651730481033689 255 0 0 255
-0.5511636001480675 0.5531343397816435 0.22749840705646088 255 0 0 255
-0.5280822799197603 0.5443193683741921 0.22253330546693542 255 0 0 255
-0.53562851486466 0.5323694759483005 0.19405504988386726 255 0 0 255
-0.538918576417374 0.5459402293040185 0.2323665884961373 255 0 0 255
-0.5041961917348565 0.5445766630758081 0.22574192063938087 255 0 0 255
-0.5098464107544411 0.5524363745493723 0.25298052559436635 255 0 0 255
-0.48836190801405527 0.5750071338145433 0.2791116021182543 255 0 0 255
-0.4716257459129351 0.5369172447582014 0.22985637770711356 255 0 0 255
-0.4781923791258533 0.5490766449748836 0.25503303541307937 255 0 0 255
-0.41500258691986286 0.5199334820521964 0.21914473163926987 255 0 0 255
-0.39154620208748425 0.5164998108323549 0.22561130938166293 255 0 0 255
-0.36783183088157306 0.5025168561863151 0.20149602244555975 255 0 0 255
-0.32570358488604606 0.4785510633358469 0.17533238994086658 255 0 0 255
-0.3007913610941001 0.48220820378549156 0.2025021676659967 255 0 0 255
-0.29165563703785724 0.4768157701026549 0.20249858732731732 255 0 0 255
-0.2866117642045098 0.46693902806710236 0.16417996184501576 255 0 0 255
-0.2673538301807512 0.4564008147003155 0.16002496515833087 255 0 0 255
-0.26652086261187136 0.45766587035744394 0.16405875374550405 255 0 0 255
-0.25479004766004903 0.45649448231374157 0.15677662107123014 255 0 0 255
-0.24170176682034017 0.4567234776860806 0.15249588517267942 255 0 0 255
-0.21691159472195357 0.44384307548786817 0.14470488482257357 255 0 0 255
0.22875556819655235 0.3931697698006094 0.39758794092530175 255 0 0 255
0.23030131765171058 0.40980099235479756 0.42608027469081 255 0 0 255
0.25173343844519863 0.40296839281029984 0.41824453715303705 255 0 0 255
0.251528590546354 0.41654534988561903 0.44067749653121163 255 0 0 255
0.2623808088336877 0.4146798953359713 0.4480912102759634 255 0 0 255
0.28013551709716605 0.3990512818430906 0.43929063187875506 255 0 0 255
0.28857174923976114 0.40260000863972206 0.44802857436922494 255 0 0 255
0.29106271317375754 0.40597005721109547 0.4627502604911371 255 0 0 255
0.3014103191535309 0.40569519109737384 0.4691178873600255 255 0 0 255
0.32574345994390175 0.39964478764687417 0.45904887972562924 255 0 0 255
0.35777701590553984 0.3986405940726789 0.48280001946452067 255 0 0 255
0.36492372898964787 0.40003373370909445 0.503825043799963 255 0 0 255
0.3094363106527733 0.41385756151105946 0.5702938027184351 255 0 0 255
0.35870553992697485 0.4125566004805552 0.5310108109587378 255 0 0 255
0.3630556167182297 0.41030760722382503 0.5329861369741128 255 0 0 255
0.6523056862024306 0.304121685004412 0.5953086267938614 255 0 0 255
0.5910749675940788 0.39096390776400647 0.659401546763454 255 0 0 255
0.5882930057668461 0.40871515169936595 0.6780835002164375 255 0 0 255
0.5340713446289316 0.44467912843048213 0.7122699238390374 255 0 0 255
