ply
format ascii 1.0
comment VCGLIB generated
element vertex 1162
property float x
property float y
property float z
property uchar red
property uchar green
property uchar blue
end_header  
-0.7223495 3.534843 0.1111979 183 177 178 
-0.6918097 3.59746 0.1743299 224 197 199 
-0.6647099 3.58706 0.201033 96 45 44 
-0.6541699 3.641311 0.2590312 111 69 65   
0.8955401 2.879177 0.5115737 244 242 241  
0.9078802 2.886922 0.507023 245 243 243 
0.92171 2.884365 0.515209 209 193 192 
0.9207301 2.87645 0.5298346 160 130 128 
0.9308199 2.894395 0.5275507 199 168 166 
0.94392 2.880672 0.5469766 131 95 91 
1.03616 2.852458 0.5566472 229 228 227 
1.03703 2.853501 0.5569774 232 230 229 
1.02534 2.844273 0.5600975 243 242 241 
1.02275 2.846834 0.5614627 239 237 237   
-0.6782497 3.56903 0.1978409 99 50 53 
-0.6708297 3.571526 0.2037777 88 35 36 
-0.67062 3.582152 0.2006928 88 38 37 
-0.6653298 3.585892 0.2214239 102 45 42 
-0.6534399 3.600349 0.2505608 118 61 55 
-0.6594995 3.608213 0.2383825 117 64 58   
0.8777403 2.865842 0.5133277 244 243 242 
0.8933802 2.872483 0.5123464 242 240 240 
0.9177603 2.876507 0.5501759 111 81 79  
1.00673 2.842612 0.5655689 236 234 234  
-1.04071 3.376695 -0.243396 245 244 244  
-0.7160596 3.495378 0.1266828 129 114 117 
-0.6781296 3.56013 0.2106857 109 56 56 
-0.65626 3.562419 0.2310866 106 45 40 
-0.6466097 3.574977 0.2414304 113 54 48 
-0.6661996 3.592035 0.2447477 114 54 48 
-0.6329998 3.552489 0.2505262 109 50 45 
-0.6076497 3.5538 0.2602772 110 59 57       
0.8939899 2.87761 0.5577678 165 141 141 
0.87782 2.872128 0.564989 154 134 135 
0.89091 2.872586 0.574569 109 86 86 
0.8969401 2.87012 0.5716514 107 83 83 
0.9149404 2.860821 0.5734146 60 37 35 
-1.03214 3.349116 -0.2190197 253 255 254 
-0.72925 3.485739 0.131671 213 209 209 
-0.71214 3.495948 0.1430172 144 128 130 
-0.7125095 3.483122 0.1530775 121 100 100 
-0.7157598 3.489427 0.1598683 117 94 94 
-0.7130299 3.513702 0.1656674 115 91 92 
-0.7126597 3.50796 0.1820762 92 61 59 
-0.7087798 3.532807 0.1862981 103 71 71 
-0.6837496 3.539317 0.2169321 98 46 45 
-0.67206 3.537355 0.229408 103 45 41 
-0.65486 3.533769 0.2392565 104 46 41 
-0.6434196 3.543287 0.2438498 108 49 43 
-0.6423396 3.527264 0.2509912 101 44 40 
-0.63239 3.538161 0.2551011 107 49 46 
-0.6031798 3.539427 0.2660477 98 54 53    
0.8222699 2.844916 0.5417073 184 171 175 
0.8932098 2.850858 0.5807136 64 43 43 
0.9752902 2.814536 0.6099838 244 244 242 
-0.7417396 3.480813 0.1453737 249 248 248   
-0.7271999 3.480232 0.1478592 183 176 176 
-0.7155498 3.483914 0.1765064 127 99 96 
-0.72653 3.477245 0.166494 160 144 143 
-0.6926097 3.514662 0.2202723 110 59 55 
-0.7080798 3.524857 0.221257 111 65 60 
-0.6715797 3.52313 0.2354165 101 44 38 
-0.6811199 3.510185 0.2278754 105 49 44 
-0.6534399 3.516886 0.2404843 104 47 41 
-0.6430296 3.513639 0.2519045 97 43 39 
-0.6474099 3.506882 0.2526599 95 43 39 
-0.6340097 3.526232 0.2586384 102 48 45 
-0.6231197 3.521041 0.261582 101 51 50 
-0.6345797 3.511938 0.2599756 97 47 44 
-0.6244897 3.499144 0.2663541 83 44 43 
-0.6156095 3.519284 0.2674319 82 41 40 
-0.6040397 3.499892 0.2738822 67 42 40 
-0.59025 3.491212 0.278915 60 43 43 
-0.5637897 3.48888 0.2841443 48 36 36 
-0.5399898 3.477438 0.2950538 77 63 64        
0.68576 2.85453 0.497962 229 217 217 
0.7921399 2.831558 0.5340575 139 116 120 
0.8091502 2.836425 0.5455529 138 116 120 
0.8219298 2.847169 0.5590816 124 103 109 
0.8474603 2.815783 0.5694741 77 56 60 
0.8305801 2.830342 0.5731114 77 54 58 
0.8717703 2.840717 0.5825442 87 65 67 
0.9410501 2.817071 0.6064981 109 93 88 
0.9268702 2.811348 0.6122998 131 115 110 
0.9407001 2.805138 0.6175161 164 155 151 
0.95827 2.793874 0.6193474 226 223 221 
0.9703602 2.802697 0.6149388 228 226 224   
0.97543 2.803117 0.6176253 246 246 245    
-0.6928495 3.485584 0.2241791 115 65 57 
-0.6627498 3.483957 0.245077 87 39 33 
-0.6514996 3.490847 0.2544587 92 46 42 
-0.6427597 3.479499 0.2624693 95 56 53 
-0.6158099 3.491219 0.27001 72 43 41 
-0.6279597 3.483049 0.2666757 73 41 40 
-0.6289495 3.483253 0.2680109 72 41 39 
-0.6148995 3.47511 0.2703797 68 45 44 
-0.5898899 3.476008 0.2794923 58 44 46 
-0.5887699 3.475598 0.280544 56 41 44 
-0.5896297 3.474757 0.2798814 57 43 45 
-0.5781897 3.483979 0.2844917 47 33 33 
-0.5778899 3.484067 0.2855153 47 33 33 
-0.5650495 3.463408 0.2926886 83 69 71 
-0.5640097 3.462078 0.2919123 83 69 70 
-0.55303 3.470593 0.2936118 102 88 89 
-0.5405096 3.466955 0.3041035 59 43 45      
0.6044301 2.849052 0.4726103 210 191 192 
0.6002302 2.85446 0.4581746 248 245 245 
0.6117802 2.86301 0.4719 250 248 247 
0.6193799 2.848541 0.4821155 189 167 167 
0.6242203 2.853395 0.4686017 249 247 246 
0.63415 2.852385 0.4772831 230 221 220 
0.6455902 2.852003 0.480688 242 237 236 
0.6496099 2.844388 0.49695 181 149 151 
0.6745099 2.847499 0.511203 177 144 146 
0.7052202 2.836756 0.5147562 153 121 122 
0.7008901 2.834193 0.5072127 162 131 132 
0.7605299 2.84242 0.5436816 121 95 98 
0.7395101 2.85217 0.5424197 143 115 118 
0.7667899 2.843518 0.55768 97 72 75 
0.7884501 2.831745 0.5591873 96 73 76 
0.8103299 2.834581 0.565643 117 95 99 
0.82972 2.815295 0.5753533 100 83 84 
0.7974501 2.829689 0.5817069 109 92 94 
0.9247202 2.795115 0.6191501 226 223 221 
0.93853 2.788394 0.6233406 249 248 247 
0.9571099 2.784039 0.6302251 249 248 248  
-1.09321 3.308949 -0.2235198 245 244 244 
-1.07536 3.297784 -0.2228615 224 221 220 
-0.9966698 3.258968 -0.1981459 96 66 66 
-0.9749497 3.269279 -0.1884802 88 64 63 
-0.8357996 3.192798 -0.1450023 192 180 177   
-0.6749896 3.457159 0.2334228 106 59 49 
-0.6546698 3.452367 0.2578926 86 48 45 
-0.6418399 3.460809 0.2631314 75 43 41 
-0.6282001 3.4686 0.2686324 69 42 41 
-0.61514 3.460753 0.2735178 76 56 56 
-0.6152495 3.444655 0.2732736 78 59 60 
-0.6024598 3.453236 0.2788926 76 60 61 
-0.6020197 3.452236 0.2794212 73 58 59 
-0.5897799 3.445391 0.2846659 42 29 31 
-0.5407299 3.433893 0.2999051 77 58 61      
0.4249902 2.863948 0.3979938 249 246 244  
0.4463902 2.859751 0.4079533 235 225 223 
0.4443202 2.86142 0.4084827 242 236 234 
0.4633102 2.870348 0.425568 245 240 238   
0.47962 2.865165 0.4342042 228 215 212 
0.54039 2.854262 0.4475765 229 220 218 
0.61128 2.838596 0.4883151 142 103 104 
0.6125301 2.846649 0.4976804 144 108 109 
0.6298102 2.846804 0.4902382 177 150 151 
0.6411399 2.85909 0.5094447 183 154 155 
0.6438804 2.843906 0.5132327 127 92 93 
0.65175 2.854363 0.5157336 163 129 131 
0.7096701 2.807864 0.5396906 191 180 179 
0.7368101 2.815119 0.5620952 215 209 209 
0.7488604 2.831986 0.5658475 144 123 124 
0.7504001 2.82474 0.5645855 165 150 150 
0.7815498 2.818772 0.5808869 202 195 195 
0.9241799 2.786127 0.6327753 236 233 232    
-1.00512 3.219061 -0.2127355 240 237 236 
-1.0128 3.228466 -0.2088761 226 221 221 
-1.01279 3.228363 -0.2089497 227 222 221 
-0.85039 3.183257 -0.1490835 98 69 68 
-0.8231996 3.187506 -0.1360894 198 190 189 
-0.7180699 3.143922 -0.09835471 244 242 241 
-0.6656498 3.421792 0.2426911 112 71 64 
-0.6250895 3.415561 0.2660309 79 56 55 
-0.6251296 3.415305 0.2676013 77 54 53 
-0.61383 3.426852 0.2726231 65 47 47 
-0.6109599 3.422867 0.273603 59 42 42 
-0.61523 3.411371 0.2740442 56 38 38 
-0.6026896 3.437438 0.2818168 50 35 37 
-0.6024097 3.436674 0.2824835 48 34 35 
-0.5997099 3.418076 0.2806188 42 29 30 
-0.5990399 3.416921 0.2814453 41 28 29 
-0.3503399 3.280278 0.3049636 217 177 179 
-0.3580298 3.292199 0.315042 213 175 176 
-0.3369598 3.285139 0.3164011 188 153 152 
-0.3374 3.295965 0.3321689 208 178 174 
-0.3309698 3.286789 0.3313453 187 156 149 
-0.3319097 3.300964 0.341924 204 178 171         
0.2365603 2.934652 0.3528418 251 249 249 
0.26334 2.915715 0.3623355 237 234 232  
0.31881 2.897416 0.3819599 248 246 245 
0.3346601 2.889644 0.3877666 241 234 232 
0.33741 2.886211 0.391225 234 222 219 
0.3625603 2.878644 0.3880577 245 240 238  
0.3791103 2.874398 0.3962481 237 224 222 
0.3764 2.875353 0.408706 211 183 180 
0.3958602 2.868919 0.3974352 237 228 225 
0.3882403 2.886347 0.4123373 235 226 223 
0.4144201 2.866724 0.4083129 221 203 199 
0.5437201 2.851331 0.4700145 177 142 140 
0.5697203 2.843679 0.4914327 132 96 96  
-0.9419999 3.199555 -0.1770434 240 239 237  
-0.6481599 3.08827 -0.08400203 234 226 225 
-0.6398897 3.093098 -0.07742442 237 232 231 
-0.6371098 3.075706 -0.06267429 216 202 202 
-0.6608399 3.371683 0.2284184 97 59 55 
-0.6644396 3.400027 0.2373177 94 55 48 
-0.6544098 3.418182 0.2551776 78 42 37 
-0.6246299 3.396197 0.2629929 83 59 56 
-0.6249198 3.395657 0.2634226 78 56 53 
-0.6119298 3.406941 0.2737651 52 35 35 
-0.4528098 3.239926 0.2400315 154 125 123 
-0.42693 3.247667 0.2518604 214 188 190 
-0.4302096 3.276891 0.2778088 229 214 215 
-0.3841 3.270983 0.3104072 199 158 161 
-0.3874598 3.268831 0.3095725 201 161 165 
-0.37604 3.273804 0.3193091 195 151 154 
-0.3677597 3.273104 0.3153178 200 156 158 
-0.36341 3.28002 0.3273883 186 143 144 
-0.35113 3.277341 0.3234631 172 132 131 
-0.3612099 3.278435 0.3392074 149 109 108 
-0.35179 3.288328 0.3515491 145 110 107 
-0.34057 3.285815 0.3383074 171 138 134 
-0.33781 3.292662 0.3589939 188 159 150 
0.1635303 2.893903 0.3030673 250 246 245 
0.18431 2.899663 0.3181406 247 242 240 
0.1841602 2.911353 0.3427371 224 205 202 
0.2072902 2.901947 0.3444402 227 205 203 
0.2407603 2.914702 0.3683748 195 175 170 
0.29421 2.883302 0.3795315 201 172 169 
0.3090801 2.885822 0.3841903 218 195 193 
0.3215003 2.858053 0.3894711 104 52 48 
0.3895402 2.872674 0.4201946 184 145 142 
0.4561701 2.835288 0.4404975 93 43 34 
0.6375504 2.781337 0.517605 159 152 150  
-0.82269 3.131636 -0.1315292 213 208 208 
-0.4773097 3.238793 0.2537838 84 54 52 
-0.4926996 3.255574 0.2550527 62 34 31 
-0.4517598 3.227251 0.2598455 172 141 142 
-0.4521699 3.235116 0.2455414 162 132 131 
-0.4397798 3.230505 0.271264 193 162 165 
-0.43959 3.23741 0.2561851 226 197 198 
-0.4387798 3.233315 0.2617938 214 184 186 
-0.4291301 3.242987 0.2647287 218 190 194 
-0.4253798 3.236336 0.2797337 192 160 166 
-0.4302998 3.241231 0.2785257 209 179 183 
-0.4133301 3.242415 0.2748975 205 175 181 
-0.3705597 3.26638 0.3322797 145 105 105 
-0.3673401 3.267799 0.3411742 116 77 77 
-0.3621798 3.251555 0.3461902 97 60 57 
-0.3646898 3.264598 0.3379251 114 75 74 
-0.3566198 3.276259 0.35195 113 76 75 
0.06805991 2.912211 0.289086 242 234 232 
0.0788102 2.904652 0.2916116 236 223 221 
0.08668994 2.901575 0.2899286 243 232 231 
0.09705018 2.891702 0.2833317 241 231 230 
0.1084399 2.902253 0.3161597 212 170 169 
0.11129 2.898277 0.3128308 211 168 167 
0.1201701 2.89871 0.3255068 207 158 157 
0.1231303 2.888331 0.3156445 194 145 140 
0.1403604 2.900405 0.3129531 230 211 209 
0.1406803 2.893324 0.3051809 234 217 216 
0.1485701 2.887651 0.3235548 208 162 161 
0.14674 2.899595 0.3142712 232 214 213 
0.1605902 2.885492 0.3317611 200 150 150 
0.1582804 2.897913 0.3229467 223 197 195 
0.1811104 2.882819 0.334309 205 159 159 
0.1912904 2.895298 0.3526585 202 162 161 
0.2246504 2.896737 0.3824896 92 57 51 
0.2579303 2.871126 0.3801587 99 63 58 
0.2860003 2.865793 0.392537 94 49 45 
0.31991 2.844982 0.408893 136 95 90 
0.6075301 2.765985 0.518252 69 49 46 
0.6465402 2.747771 0.5435747 52 38 38 
0.6466804 2.756697 0.5309708 78 67 65 
0.65983 2.758432 0.5337155 211 208 207 
0.6322302 2.749013 0.5356386 60 42 40 
0.6376901 2.766652 0.5217227 64 51 49 
0.6612501 2.753137 0.5510469 186 181 180 
0.65986 2.754949 0.5522647 196 192 191    
-0.6492 3.044084 -0.03862394 121 94 91 
-0.64327 3.304016 0.2167916 84 50 47 
-0.6296896 3.302938 0.2437544 86 57 53 
-0.6186699 3.298649 0.2496402 78 50 47 
-0.5731 3.298333 0.2598566 72 49 47 
-0.4658899 3.216621 0.2729452 96 63 64 
-0.46065 3.216801 0.271356 120 87 88 
-0.4518299 3.224204 0.2666577 167 136 137 
-0.4625597 3.225703 0.2580037 109 78 77 
-0.4524999 3.221036 0.275721 194 161 162 
-0.44065 3.228674 0.2792074 196 164 168 
-0.4363599 3.223548 0.301176 144 109 111 
-0.4394097 3.228471 0.2847806 189 156 160 
-0.3561001 3.247877 0.370407 116 79 76 
-0.3492899 3.262881 0.3834864 105 70 64 
-0.3483601 3.261744 0.381617 105 69 63 
-0.3152699 3.245021 0.3882177 139 108 95 
-0.3379097 3.258527 0.3915814 120 86 77 
0.06292009 2.898325 0.29784 188 146 144 
0.07292031 2.889264 0.3088479 182 129 126 
0.08248996 2.902571 0.3131105 204 156 155 
0.08564996 2.883287 0.3145875 182 126 122 
0.09867001 2.889346 0.3125334 209 154 152 
0.1087203 2.889319 0.3234683 204 148 146 
0.1200199 2.885372 0.3311193 189 134 132 
0.19594 2.847345 0.3605774 143 114 112 
0.6231402 2.732646 0.5395824 71 52 50 
0.6027603 2.738925 0.5380856 95 79 77 
0.59627 2.74097 0.5353885 97 84 82 
0.6153001 2.749265 0.530388 64 44 42 
0.6397901 2.736448 0.5465852 58 39 38 
0.6515203 2.742006 0.5584547 48 34 34 
0.6525002 2.738795 0.5762879 47 33 33 
0.66688 2.74696 0.5654609 152 146 145  
-0.7013897 3.053599 -0.0470822 236 232 231 
-0.6882299 3.051102 -0.03660299 212 206 204 
-0.6657 3.04436 -0.02798451 177 166 164 
-0.6437097 3.032883 -0.02341605 156 143 140 
-0.6353498 3.029312 -0.01940001 164 152 149 
-0.6146997 3.043116 0.004278408 108 84 82 
-0.6175798 3.278396 0.2461102 83 52 48 
-0.6054797 3.286733 0.2570243 71 43 40 
-0.6142898 3.288977 0.2505856 77 47 44 
-0.6148601 3.274389 0.2510239 89 57 53 
-0.6042098 3.270275 0.2578321 95 63 60 
-0.6044897 3.270352 0.2575294 95 63 60 
-0.59126 3.277704 0.2593813 63 36 34 
-0.5915197 3.262912 0.261513 96 63 61 
-0.5778098 3.263268 0.274864 89 57 55 
-0.4618497 3.209546 0.2829931 116 82 82 
-0.46209 3.209507 0.2898814 115 81 81 
-0.4487801 3.215748 0.2912064 155 121 122 
-0.4458699 3.21231 0.2952364 121 85 86 
-0.4423699 3.200584 0.3044975 91 55 54 
-0.43859 3.200221 0.3056641 91 54 53 
-0.4303298 3.210955 0.3117957 85 48 47 
-0.4209299 3.198741 0.3205217 96 58 57 
-0.4162397 3.214614 0.3182102 81 42 42 
-0.4087501 3.207104 0.323135 96 57 56 
-0.3947101 3.215436 0.3419513 127 89 87 
-0.3582697 3.24509 0.3812703 120 84 80 
0.04375029 2.85287 0.2887148 115 65 60 
0.03142023 2.847054 0.2807777 118 71 66 
0.0378003 2.85941 0.2721963 123 70 64 
0.05840015 2.859547 0.2932947 114 60 55 
0.09364032 2.862791 0.3328406 137 94 90 
0.1779304 2.825568 0.3489454 228 223 222 
0.2287302 2.836183 0.3765357 188 177 176  
0.6034101 2.730307 0.5507741 128 119 117 
0.5898299 2.729854 0.5420182 214 210 209 
0.62852 2.724431 0.5553779 67 51 49 
0.6441503 2.72414 0.5633142 50 34 33 
0.6340103 2.733 0.5789285 51 36 34 
0.64432 2.739137 0.6054087 56 43 41 
0.6548699 2.73403 0.593446 52 38 38 
0.6668301 2.737484 0.6040874 115 108 107    
-0.6547998 3.02852 -0.006624592 242 242 241 
-0.6383399 3.023282 -0.009172333 242 240 238 
-0.6223797 3.027089 0.009099828 183 175 174 
-0.6080399 3.031636 0.04344665 134 120 117 
-0.6128997 3.035528 0.04676222 134 118 115 
-0.6756697 3.222366 0.1870429 42 27 27 
-0.6466998 3.258777 0.2335172 85 50 48 
-0.6445798 3.243551 0.2306615 97 62 59 
-0.6187099 3.263442 0.2480873 94 58 55 
-0.6321796 3.262306 0.2394813 85 50 46 
-0.6050996 3.262366 0.2583621 96 62 59 
-0.6061496 3.25645 0.2556641 95 59 57 
-0.4450998 3.182128 0.3040872 89 54 52 
-0.4342098 3.189119 0.3151889 94 58 56 
-0.4285998 3.186719 0.3143863 102 65 63 
0.01541996 2.839813 0.2774975 135 99 96 
0.02667999 2.828667 0.2888334 214 206 204 
0.03960036 2.837261 0.2907601 151 124 120 
0.04663038 2.836379 0.2907208 142 113 109 
0.07457017 2.8288 0.3088359 226 220 217     
0.5929998 2.725613 0.5634184 242 242 241 
0.6167001 2.706223 0.5722029 243 242 240 
0.6315103 2.734293 0.5986561 68 54 52 
0.62297 2.721178 0.5869858 156 149 147 
0.6363301 2.727648 0.6115431 96 85 84 
0.64362 2.716862 0.6213323 117 108 107 
0.6741399 2.713626 0.636069 57 45 43 
0.70121 2.726131 0.6540287 217 215 214      
-0.6235799 3.03485 0.05072843 169 160 157 
-0.6571397 3.234351 0.2277655 83 53 51 
-0.6541499 3.224805 0.231673 99 68 65 
-0.6453499 3.223916 0.2362002 99 66 63 
-0.6334499 3.238705 0.2436254 101 64 61 
-0.61909 3.207186 0.243473 78 44 41 
-0.6041098 3.210877 0.2495057 97 62 60 
-0.6059197 3.201597 0.2493748 86 53 50 
-0.6011996 3.193099 0.2500977 89 57 55 
-0.5957999 3.210478 0.2592506 95 61 59 
-0.5194798 3.188617 0.2761849 73 44 42 
-0.5072699 3.166125 0.2853441 77 47 45 
-0.5102201 3.176539 0.2847742 78 47 45 
-0.5067896 3.179627 0.2799225 76 46 44 
-0.5046396 3.177757 0.2804784 77 47 45 
-0.49787 3.183313 0.2834992 74 44 42 
-0.4934897 3.172969 0.28607 77 46 44 
-0.4950299 3.15986 0.2898214 79 48 45 
-0.4903197 3.158683 0.2863632 78 47 44 
-0.4802499 3.165413 0.2906078 80 47 45 
-0.4819298 3.173772 0.2870569 77 45 43 
-0.4789801 3.169497 0.2919419 79 46 44 
0.003320217 2.832826 0.2880244 236 232 231 
0.01004028 2.834181 0.2958781 230 225 224     
0.6305202 2.712479 0.6149249 216 213 212 
0.6602401 2.709115 0.6292477 97 87 85 
0.6587501 2.699657 0.6392473 194 191 189 
0.7207003 2.711671 0.6759438 239 238 236   
-0.6313995 3.026287 0.0724747 239 238 237 
-0.6179999 3.016109 0.08624767 201 195 194 
-0.6705698 3.199969 0.2135998 90 62 59 
-0.6532196 3.203444 0.2281325 81 52 49 
-0.6180996 3.193269 0.2500243 102 71 67 
-0.5904098 3.189169 0.2574649 82 54 52 
-0.5773295 3.181641 0.260153 86 57 54 
-0.5427799 3.147068 0.2680289 99 66 63 
-0.53579 3.16253 0.2712944 87 56 54 
-0.5371498 3.133901 0.2667668 95 61 58 
-0.5313696 3.161668 0.2739353 80 50 48 
-0.5037298 3.15104 0.283857 84 52 49   
0.6493701 2.699706 0.6618066 242 242 240 
0.7161102 2.682927 0.7012524 219 216 214 
0.7105001 2.692344 0.6874517 127 116 111  
-0.6202096 3.181226 0.2580326 114 82 78 
-0.6181697 3.157349 0.2551456 117 81 78     
0.6869602 2.675133 0.6889924 198 195 193 
-0.6233397 2.991936 0.1080992 241 239 239 
-0.5369697 3.092279 0.2712353 99 65 60 
-0.5490298 3.082985 0.2698422 110 76 71 
-0.5365199 3.101088 0.2728454 83 48 44 
-0.5371398 3.078855 0.2782446 117 81 76  
-0.2158399 2.795543 0.1968818 197 186 184   
-0.5901299 2.930161 0.1136002 95 72 68 
-0.5879998 3.007532 0.1971244 114 80 75 
-0.5948099 3.059043 0.2166949 114 75 71     
-0.6037998 2.919643 0.1123425 219 216 213   
-0.6041697 2.906034 0.1204748 207 202 200 
-0.5913 2.906643 0.1301929 84 59 56 
-0.5866097 2.941866 0.1515722 88 55 52  
-0.6180695 2.88641 0.1307399 213 209 207 
-0.5982398 2.860926 0.1372276 137 125 122 
-0.6125398 2.869043 0.1454719 179 170 168 
-0.6082897 2.879679 0.1334181 209 204 202 
-0.5556697 2.94815 0.2377836 45 23 22 
-0.5669097 2.936776 0.2360968 34 16 15   
-0.5651196 2.617205 0.0974089 229 227 226 
-0.5668696 2.602757 0.1039262 239 238 237 
-0.5328397 2.441803 0.08964529 245 244 242  
-0.53939 2.486014 0.10468 231 227 226 
-0.5086699 2.445688 0.1177732 101 67 64 
-0.5077996 2.468037 0.1180126 100 64 60 
-0.5263801 2.401219 0.09166528 235 231 230 
-0.5175499 2.4201 0.1115443 147 125 123 
-0.50949 2.423276 0.1174813 115 84 82 
-0.5006098 2.405797 0.1267685 104 68 64 
-0.4969797 2.375382 0.1217225 120 86 81 
-0.5036997 2.416927 0.1358267 104 65 62 
-0.45821 2.231762 0.1817929 138 98 93 
-0.43929 2.120701 0.1548956 133 95 90 
-0.44697 2.072391 0.125423 107 69 64 
-0.43817 2.091439 0.1523371 128 90 85 
-0.4106898 2.094698 0.1795358 134 97 91 
-0.4268599 2.11257 0.1735106 142 102 97 
-0.4334097 2.029439 0.1382362 117 76 71 
-0.4382401 2.067149 0.1501579 109 70 65 
-0.4387197 2.064707 0.1475449 110 71 65 
-0.4518499 2.066737 0.1365761 116 77 72 
-0.4151797 2.073527 0.1800845 119 79 73 
-0.42873 2.088364 0.1705286 122 83 78 
-0.4345198 2.004727 0.1366488 136 93 87 
-0.4312496 2.036534 0.1687054 128 85 81     
-0.4551001 1.90677 0.0673397 209 200 198 
-0.39713 1.928867 0.1589838 123 80 75 
-0.4049101 1.957573 0.1607595 120 76 70 
-0.4087996 1.947968 0.1489506 125 81 76 
-0.3916297 1.953028 0.1675353 121 75 70      
-0.4572396 1.859977 0.05739407 234 230 229 
-0.4317198 1.860382 0.09117798 118 80 76 
-0.4124498 1.888525 0.1448336 137 95 90 
-0.4014196 1.901253 0.1632369 141 98 93 
-0.40241 1.906113 0.1607566 139 96 90 
-0.3926597 1.926167 0.1689799 131 87 81 
-0.4834599 1.63617 -0.09305914 233 218 217 
-0.4787998 1.661307 -0.09491939 246 240 238  
-0.8480796 3.149554 0.9288669 213 208 208 
-0.80369 3.136675 0.9584209 112 97 96 
-0.7813897 3.126122 0.9669653 248 248 248   
-0.5376101 1.598302 -0.1325043 210 200 198 
-0.5149899 1.625859 -0.09192152 205 190 189  
-0.5067101 1.63443 -0.1019183 239 234 232 
-0.5076699 1.635651 -0.1013099 239 235 234 
-0.4908099 1.624374 -0.08516903 193 167 168 
-0.4378099 1.68675 0.0004615047 211 197 196   
-0.8121399 3.130667 0.9619081 83 62 60 
-0.8223599 3.125895 0.9657341 121 103 102 
-0.7853599 3.112539 0.9707778 241 238 238  
-0.5063499 1.585195 -0.102092 192 155 155 
-0.46773 1.606998 -0.05537565 92 59 58 
-0.4553699 1.586304 -0.04612477 110 75 72 
-0.4419098 1.623622 -0.02373345 142 112 111 
-0.4018698 1.660363 0.05392127 111 75 73 
-0.4132099 1.731167 0.1001653 104 66 63 
-0.4131198 1.733776 0.1047095 102 63 60   
-0.83362 3.122182 0.9706443 207 198 197 
-0.79597 3.109435 0.9772234 239 235 234 
-0.3311996 0.8263169 -0.57719 239 235 232 
-0.3217597 0.811087 -0.5872124 244 241 239 
-0.3060799 0.7981041 -0.5726379 207 197 193 
-0.2301598 0.7446548 -0.5637423 236 232 230  
-0.5089597 1.556217 -0.09862752 150 106 104 
-0.4775 1.521094 -0.07458001 180 163 161 
-0.4924397 1.537194 -0.08510251 110 73 71 
-0.4726796 1.545125 -0.07425315 110 72 70 
-0.4607697 1.553367 -0.05057521 118 85 83 
-0.4450197 1.566736 -0.03061004 106 71 69 
-0.4446998 1.591072 -0.02031941 104 69 68 
-0.3835297 1.631527 0.06544069 112 77 73 
-0.40521 1.725177 0.1255555 81 44 40 
-0.3931298 1.713868 0.1494086 77 42 36  
-0.3711801 0.8245786 -0.5521576 173 162 159 
-0.3275399 0.8076164 -0.5597839 172 154 150 
-0.3123498 0.7957285 -0.5444849 154 129 123 
-0.34725 0.8105186 -0.5441179 120 99 94 
-0.3287101 0.7986119 -0.5349355 138 113 107 
-0.2377796 0.7374412 -0.5271916 217 203 197  
-0.4455099 1.539739 -0.02957411 137 116 114 
-0.44344 1.586967 0.01726096 97 68 65 
-0.4250498 1.544971 0.01577096 107 83 81 
-0.3969498 1.589878 0.08377235 95 58 54 
-0.3940597 1.686368 0.1501429 111 77 70  
-0.3751197 0.8250204 -0.5224054 198 191 188 
-0.3313498 0.794647 -0.5305595 103 79 74 
-0.3544998 0.8145313 -0.5362301 124 105 100 
-0.35467 0.8048185 -0.5089887 155 143 139 
-0.3568997 0.8083755 -0.512055 160 148 144 
-0.3097501 0.7812901 -0.5194089 123 95 89 
-0.28124 0.7504292 -0.5219558 156 124 121     
-0.4261498 1.529811 0.03830545 136 117 115 
-0.41044 1.549003 0.05160432 96 62 59 
-0.3933897 1.539063 0.05772596 100 61 57  
-0.37567 0.8036742 -0.493942 248 248 247 
-0.3319898 0.7868913 -0.5016621 131 113 110 
-0.3548899 0.7894103 -0.4904882 241 239 237 
-0.33184 0.7712229 -0.4868539 233 229 227 
-0.3140197 0.7756942 -0.4975932 122 99 96 
-0.3095598 0.7677175 -0.49469 129 109 105 
-0.3047299 0.7372606 -0.4888039 188 175 173 
-0.2876997 0.7541061 -0.4911544 100 68 66    
-0.4398398 1.519117 0.03178625 243 242 241  
-0.4129896 1.513596 0.06035774 134 111 108          
-0.4186001 1.453125 0.03823692 245 245 244 
-0.1059399 1.234493 0.1025852 218 215 217    
-0.4075198 1.422127 0.05423224 210 202 200 
-0.3954 1.392136 0.03995329 196 181 179 
-0.3744698 1.378543 0.06127548 87 53 51 
-0.3632097 1.468184 0.1407795 67 38 36  
-0.3695498 1.361842 0.09213555 78 47 45 
-0.3775797 1.41933 0.1101322 85 53 50 
-0.3866301 1.402867 0.1172108 74 41 39  
-0.3697701 1.36692 0.120152 74 40 37    
-0.3371496 1.161568 0.1280909 98 62 55 
-0.5378798 1.124673 0.00326861 166 138 132   
-0.2781897 0.9883354 0.1596028 104 72 67       
-0.7078599 1.127996 0.03824473 182 152 145 
-0.21245 0.808458 0.2015167 129 105 100 
-0.1916699 0.8064131 0.2143372 136 115 111 
-0.1588397 0.8024238 0.2084717 130 110 107   
-0.2118397 0.7782441 0.2052363 167 147 142    
0.09860991 1.074388 0.7217776 192 183 178 
0.1156802 1.081665 0.7333757 163 150 144 
-0.7252898 1.148458 0.1376771 239 235 232  
-0.1932197 1.433605 0.8221933 226 222 220  
-0.1691599 1.421972 0.8481354 236 234 232   
-0.1600699 1.572625 0.990009 217 208 205   
-0.1471701 1.530735 1.015648 222 217 215 
-0.1305499 1.535264 1.022851 215 207 205 
-0.12925 1.509105 1.021808 209 201 198 
-0.09290981 1.589151 1.084873 116 76 71 
-0.1011996 1.583501 1.074936 134 99 95 
-0.1731601 1.535969 1.026221 238 236 235 
-0.9857296 1.157436 0.1096103 135 83 76 
-0.1202497 1.540929 1.107004 230 226 224 
-0.09039973 1.533653 1.141375 244 242 240   
0.04724026 1.573554 1.284507 234 229 226       
-1.07946 1.170771 0.07658512 233 212 209 
-1.09989 1.189861 0.08790589 226 204 200 
-0.9705796 1.126996 0.1292663 221 214 211  
-0.1103001 1.503392 1.130296 244 242 241 
-0.11379 1.536145 1.131109 227 222 220 
0.05699015 1.562275 1.311157 220 209 207   
0.29142 1.828433 1.698573 242 241 241     
-1.15182 1.207406 0.08398397 245 240 238 
-1.14418 1.195459 0.08912886 229 212 208 
-1.11225 1.178531 0.08743597 230 207 203 
-1.05809 1.170939 0.1330618 120 76 70 
-1.04013 1.161627 0.1417315 158 131 127 
0.04026031 1.558467 1.322589 161 127 123 
0.05513 1.563784 1.33132 177 156 152 
0.03946017 1.56701 1.340336 148 111 106 
0.05488013 1.56532 1.35259 149 116 111 
0.07237004 1.558972 1.34227 227 219 217 
0.07246016 1.559406 1.362807 183 164 161 
0.07168006 1.559254 1.362819 181 161 157 
0.08911036 1.55059 1.372637 231 225 223 
0.08726024 1.552873 1.372411 225 217 215 
0.08749007 1.554592 1.353697 249 248 247 
0.07465028 1.560467 1.361171 196 181 178 
0.1037302 1.545728 1.382584 249 247 246    
0.3283601 1.826324 1.758311 197 190 187 
0.33462 1.848203 1.76396 117 100 96  
0.3435202 1.85889 1.777394 171 162 160  
-1.17235 1.212902 0.09566475 241 231 229 
-1.15489 1.202022 0.1011223 227 198 195 
-1.15286 1.202609 0.1070857 223 189 185 
-1.10526 1.167216 0.1267806 114 74 70  
-1.04049 1.156863 0.1628556 245 242 241 
-0.19559 0.3123094 0.2462735 171 150 147 
-0.1929798 0.3126544 0.2538596 179 159 155 
-0.005699635 1.57815 1.349375 149 120 116 
0.02119017 1.569604 1.351121 136 95 92 
0.04227018 1.55953 1.359491 148 105 101 
0.05884027 1.558707 1.370336 152 113 108 
0.0733199 1.558779 1.381136 152 120 116 
0.08764029 1.549779 1.39163 180 159 155 
0.1028399 1.544694 1.399874 225 217 215 
0.11759 1.539167 1.407919 248 246 244 
0.1209102 1.535724 1.411755 249 248 246    
0.28333 1.766561 1.698001 94 74 70  
0.3204803 1.810261 1.764358 245 245 245       
-1.24621 1.223254 0.1048431 228 207 203 
-1.2217 1.20421 0.08621962 243 235 233 
-1.21109 1.195341 0.1049251 215 182 177 
-1.18469 1.212018 0.1205459 204 157 149 
-1.12825 1.184938 0.1725071 220 212 210 
-1.09979 1.179846 0.1768121 244 241 240   
-0.005479813 1.577675 1.369596 191 174 170 
0.00728035 1.576446 1.36086 126 90 85 
0.01006031 1.571281 1.379952 147 118 114 
0.09127998 1.545113 1.426022 142 106 102 
0.09251022 1.539965 1.429094 145 110 105 
0.1002202 1.54022 1.417042 172 149 146 
0.11726 1.535229 1.425416 219 211 208 
0.1228499 1.532835 1.429318 230 224 221 
0.1164904 1.530237 1.442194 177 155 153 
0.1069403 1.534172 1.439051 157 127 124 
0.1312404 1.529315 1.432963 244 241 240 
0.1229701 1.528755 1.446806 187 169 166 
0.1366801 1.525776 1.437092 248 246 245 
0.1302299 1.525692 1.448969 211 200 198 
0.1382203 1.521297 1.453758 226 220 217   
0.2400203 1.539058 1.544436 201 190 191     
-1.34193 1.281886 0.1019586 246 242 241 
-1.30071 1.247768 0.09145731 250 248 247 
-1.1952 1.197583 0.1458296 112 66 61 
-1.17958 1.196044 0.1599259 139 109 104 
-1.15572 1.210208 0.1958895 242 238 236 
-1.14987 1.193314 0.1862476 243 241 239  
-0.1688499 0.2403845 0.3132392 206 191 189 
-0.1580701 0.24828 0.339554 204 190 186   
-0.03157997 1.59737 1.382158 237 234 232   
0.1250401 1.518605 1.481868 144 118 116 
0.1411901 1.510224 1.489267 174 155 152     
-1.38866 1.273643 0.0923484 243 237 234 
-1.28279 1.222667 0.130831 181 129 122 
-1.24623 1.196384 0.1343645 118 71 65 
-1.19569 1.200287 0.173506 177 159 155 
0.0594902 1.4957 1.428734 218 209 206 
0.1719604 1.518013 1.541023 155 138 136 
0.1687903 1.514172 1.537981 147 128 128    
-1.45666 1.325005 0.09844285 248 245 243 
-1.42393 1.292622 0.1009816 224 205 201 
-1.43648 1.314321 0.1033375 241 233 230 
-1.37214 1.280955 0.1150698 221 197 193 
-1.39371 1.289086 0.129681 191 142 134   
0.0717101 1.480312 1.450087 245 242 240 
-1.49908 1.313616 0.08076006 245 241 239 
-1.47506 1.314477 0.09467035 234 223 219 
-1.34308 1.26293 0.1720087 133 95 90 
-1.36269 1.283937 0.1684274 115 68 61 
-1.2827 1.200852 0.1690781 176 156 153 
-1.38165 1.276966 0.1765945 189 165 159 
-1.3636 1.271806 0.1856713 212 200 197 
-1.34364 1.26054 0.1978616 250 248 247          
0.1466904 1.422757 1.575349 232 227 225 
0.1714201 1.427497 1.60455 124 102 98  
-1.50096 1.291009 0.1487286 166 135 129 
-1.51725 1.302845 0.1699186 244 241 240 
-1.48256 1.285299 0.1580689 211 198 195  
-1.55562 1.30293 0.1698318 247 243 241    
0.2994599 1.371205 1.765867 206 198 196   
0.2199402 1.374528 1.711711 149 131 129 
0.22048 1.372611 1.731904 180 166 163 
-1.81925 1.361103 0.02873081 248 244 242 
-1.72614 1.400884 0.1417037 161 129 121 
-1.72937 1.402287 0.1407591 158 125 117 
-1.71538 1.404512 0.169426 237 231 227 
-1.69456 1.395497 0.1540236 188 167 162     
0.2392101 1.356872 1.759222 141 123 122 
0.2589703 1.353654 1.78334 88 67 66 
0.26196 1.350322 1.78476 88 67 66 
0.3413 1.343916 1.827237 237 235 233   
-1.80418 1.424556 0.1288938 137 99 92 
-1.77192 1.409607 0.1429064 180 161 156 
-1.75259 1.400453 0.1536486 229 222 219 
-1.74731 1.403956 0.1558502 232 226 223   
0.2309403 1.339039 1.76166 247 245 244 
0.3701301 1.322219 1.882456 218 214 214 
-1.84942 1.433592 0.1146035 152 105 97 
-1.82402 1.412186 0.146558 239 235 233         
0.35848 1.322464 1.921821 112 93 93 
0.3772402 1.324569 1.912554 214 210 209 
0.3691101 1.321891 1.902113 163 155 154 
0.4028201 1.308083 1.940476 234 231 231 
-1.89998 1.448694 0.1337905 211 200 197 
-1.86951 1.431459 0.1285623 167 144 139 
-1.87827 1.441449 0.1465821 237 232 230 
-1.84647 1.421225 0.1370861 205 193 190    
0.3850203 1.301708 1.948494 103 86 87 
0.40241 1.303122 1.961311 163 153 153 
0.4029903 1.319193 1.991019 141 126 125    
-1.938 1.446567 0.1206889 157 133 129 
0.3517303 1.292522 1.966849 134 119 119 
0.3691101 1.296161 1.955405 87 67 66 
0.3706403 1.291791 1.975675 93 73 75 
0.3762403 1.307639 1.968821 90 72 72 
0.4042501 1.319202 2.014238 111 92 89 
0.4428401 1.298846 2.022439 235 232 232 
0.4530301 1.301048 2.044559 229 225 224   
0.2607203 1.249001 1.89417 233 229 228 
0.3559704 1.28529 1.984353 184 175 174 
0.37251 1.288019 1.994286 105 89 90 
0.4313002 1.294921 2.064981 140 122 118 
0.4596 1.301325 2.066854 206 200 198 
0.45751 1.305259 2.097209 118 102 99 
0.58785 1.303682 2.19043 114 99 97    
0.2670302 1.237189 1.910391 171 158 155 
0.3582001 1.281267 2.002838 216 211 210 
0.36901 1.263335 2.017696 248 248 246 
0.4644604 1.308709 2.132922 85 65 65 
0.48489 1.326759 2.153887 94 78 78 
0.6995602 1.365489 2.362319 160 149 150 
0.5237702 1.280646 2.190727 116 102 105 
0.5343102 1.288229 2.207034 157 148 148 
0.5644602 1.276385 2.211895 109 95 94 
0.4955902 1.278801 2.19831 138 127 127 
0.4771299 1.272401 2.187051 82 65 64 
0.5087799 1.284624 2.210271 237 235 233 
0.4959602 1.254893 2.215507 84 67 63 
0.51226 1.258305 2.228182 107 93 91 
0.5087699 1.275957 2.22951 155 146 144 
0.4825902 1.235289 2.244718 169 156 154 
0.4939404 1.253015 2.238935 86 67 63 
0.4888 1.52355 2.996587 248 247 246  
-1.12415 5.241535 0.006418714 67 56 59 
-1.23996 5.294991 0.07558847 51 26 25 
-1.1249 5.210379 0.02056361 193 190 192 
-1.12586 5.194846 0.02950049 192 185 186 
-1.13492 5.20566 0.02716876 123 114 117 
-1.15269 5.184511 0.04014898 80 50 50 
-1.2266 5.133835 0.007079854 142 120 120 
-1.20903 5.120726 0.02539279 113 57 49   
-1.12015 5.049064 0.07094432 114 86 81 
-1.12082 5.048863 0.07121325 109 80 75 
-1.11047 5.039511 0.07565977 218 212 210 
-1.112 5.025425 0.07450964 142 120 116 
-1.24655 5.015532 0.01574065 238 237 238  
-1.11394 5.003329 0.07285026 105 57 48 
-1.10368 5.008658 0.07992985 183 171 169  
-1.11663 4.992039 0.07728317 106 52 42 
-1.27667 4.996383 0.01590802 107 92 101 
-1.12156 4.976687 0.08941343 106 49 37 
-1.14488 4.989222 0.1055098 111 49 34 
-1.10774 4.965828 0.08542421 103 51 40 
-1.35101 4.958618 -0.02354978 175 170 171 
-1.12577 4.95781 0.09694769 107 47 34 
-1.11249 4.950211 0.09764864 104 49 39 
-1.08539 4.948954 0.09428503 150 134 130  
-1.33994 4.954979 -0.01409576 167 161 163 
-1.15191 4.97684 0.1271379 114 53 41 
-1.13284 4.950279 0.1139396 112 54 43 
-1.1019 4.93368 0.1084967 79 38 31 
-1.07674 4.923494 0.1047359 134 121 119  
-1.19098 4.910873 0.05803492 164 151 149 
-1.16725 4.902188 0.06966022 126 70 62 
-1.15118 4.94055 0.1232949 117 57 46   
-1.16588 4.880188 0.06273963 117 79 78 
-1.17044 4.901177 0.08540084 124 68 60 
-1.04044 4.860355 0.1152325 228 221 221 
-1.17831 4.871815 0.05869964 249 249 248    
-1.15684 4.828312 0.07119682 248 247 246 
-1.14609 4.841356 0.09393146 111 58 51 
-1.13795 4.773413 0.08309868 227 222 221 
-1.11847 4.765252 0.08598712 120 86 80 
-1.11483 4.782104 0.1028531 128 72 61 
-1.11684 4.779893 0.1029392 128 75 65          
1.68006 3.870486 0.6104633 107 88 81 
-0.4963498 3.028748 -1.728522 155 149 153  
-1.07953 4.666018 0.09091715 162 138 133 
-0.4890699 3.018937 -1.719193 173 170 171 
-0.47474 3.00903 -1.710611 240 239 240 
-1.08298 4.650776 0.09579829 233 228 225 
-1.0587 4.643449 0.1086984 129 75 64 
-0.4806299 2.988128 -1.686179 228 227 229 
-1.04517 4.591319 0.1079588 120 81 75 
-1.0453 4.592183 0.1093705 118 78 72 
-0.9059997 4.551823 0.1603873 235 231 230 
-0.9050698 4.553923 0.1602335 243 241 240     
-0.9310398 4.553195 0.1627527 117 73 66 
-0.9165096 4.545906 0.1629801 131 98 94 
-0.9310297 4.542712 0.1707642 114 60 51 
-0.9229096 4.531335 0.1770523 101 50 43 
-0.8942398 4.514126 0.1756869 200 186 184  
-1.0024 4.531117 0.141043 137 77 66 
-0.9050797 4.509201 0.1842213 115 77 74  
-0.9923595 4.50271 0.1314607 130 73 65 
-0.9789199 4.489792 0.14427 136 72 61 
-0.9838499 4.505278 0.1501377 128 67 56 
-0.9923595 4.526143 0.1771536 141 74 61 
-0.9237298 4.504367 0.1850021 112 53 44 
-0.8931599 4.502096 0.1886299 178 156 153 
-0.89288 4.4881 0.1884034 125 89 84 
-0.8808998 4.479549 0.1862474 178 157 154  
-0.9935098 4.479969 0.1426926 119 76 70 
-0.9895996 4.479949 0.1391096 121 72 65 
-0.9767498 4.471477 0.1392212 127 69 60 
-0.9822997 4.48664 0.1426537 129 69 59 
-0.9823498 4.490792 0.1491175 131 69 59 
-0.96073 4.511341 0.1952129 141 74 61 
-0.9341196 4.501627 0.1966956 121 56 42 
-0.8928099 4.474143 0.19376 91 47 44 
1.56562 3.567716 0.5287391 136 120 127  
-1.01276 4.479326 0.1472016 246 244 244 
-1.00098 4.45834 0.1393958 248 247 245 
-0.9937 4.467215 0.1449254 143 116 112 
-0.9901499 4.454493 0.1435757 166 147 144 
-1.00131 4.473265 0.1386383 195 183 181 
-0.9779595 4.461272 0.1461533 123 68 60 
-0.9778699 4.45476 0.143518 119 70 62 
-0.9230999 4.482033 0.2063213 96 42 35 
-0.8547596 4.435799 0.2050054 176 161 160   
-0.9946097 4.454628 0.1470123 210 202 199 
-0.9109796 4.463736 0.2169326 93 41 36 
-0.92207 4.4695 0.2112737 116 56 48 
-0.8990197 4.459372 0.212662 76 32 32 
-0.8824595 4.437734 0.2166157 79 33 31 
-0.8714699 4.44128 0.2048924 81 46 45  
-0.3859 2.8949 -1.38599 241 238 237  
-0.9811 4.416995 0.1578904 245 243 242 
-0.9473 4.41491 0.1564505 128 69 59 
-0.9358596 4.412869 0.1753495 136 72 61 
-0.8975396 4.433617 0.2250202 97 43 38 
-0.9083599 4.440181 0.2219575 113 57 49 
-0.8737196 4.421017 0.2124076 68 27 26 
-0.8216801 4.385476 0.2048812 180 162 160 
-0.8131999 4.383438 0.2106507 236 232 230 
-0.8019899 4.389188 0.2080679 249 248 248 
-0.3660598 2.902297 -1.318152 237 231 229  
-0.9597496 4.393955 0.1573124 165 148 146 
-0.9294099 4.422811 0.214825 134 69 59 
-0.83318 4.382756 0.2199719 108 69 67 
-0.8327097 4.38083 0.2128797 103 62 59  
-0.7878199 4.350996 0.2184492 234 224 225 
1.50243 3.458029 0.4839968 245 244 244 
-0.8461298 4.37827 0.2224398 93 42 37 
-0.80168 4.347533 0.2229553 170 145 146  
-0.9599099 4.367999 0.1805709 203 197 196 
-0.9428495 4.386984 0.197073 106 61 56 
-0.9295796 4.365598 0.1829827 93 49 43 
-0.8358396 4.356047 0.2264228 100 48 43 
-0.7970399 4.345147 0.2393728 199 179 182 
-0.7583498 4.312388 0.2298243 186 157 159  
-0.9609599 4.357305 0.1885138 199 194 194 
-0.7994598 4.326499 0.2457405 126 98 102 
1.462131 3.400769 0.5007293 169 153 159   
-0.9271597 4.320709 0.1825314 155 134 133 
-0.8106899 4.322014 0.2534852 110 79 83 
-0.7965397 4.311546 0.2548986 87 52 56 
-0.77429 4.296575 0.253551 95 62 66   
-0.9261999 4.305299 0.188474 230 224 223 
-0.8447098 4.317904 0.2665084 109 58 54 
-0.8220996 4.305762 0.2670479 90 43 42 
-0.7745298 4.284052 0.2579394 78 38 40   
-0.83182 4.295287 0.2669211 111 55 51 
-0.6997899 4.221251 0.2613805 95 75 74 
-0.6884198 4.21454 0.2618065 104 86 84    
-0.8609799 4.26514 0.254536 149 82 68 
-0.7937998 4.247693 0.2752836 88 40 39 
-0.7327299 4.217195 0.2678254 74 44 44 
-0.7092599 4.213727 0.2644987 94 72 70 
-0.7100496 4.21585 0.2699395 96 74 72 
-0.6756697 4.175475 0.2555046 81 63 60 
-0.8190998 4.248096 0.2715173 101 46 43 
-0.8166298 4.239707 0.2745841 112 59 57 
-0.8035697 4.231066 0.2759791 108 59 57 
-0.7988501 4.240554 0.2839682 88 42 40 
-0.74721 4.214671 0.2698813 92 57 56 
-0.7002996 4.186114 0.2830274 95 71 68 
-0.8344097 4.149192 0.1747387 130 109 109 
-0.7324901 4.191103 0.2809968 95 58 55  
-0.8330997 4.11958 0.1767352 241 239 239 
-0.8302397 4.132456 0.1725102 170 158 158 
-0.8179898 4.111028 0.1763113 142 126 124 
-0.8191298 4.125861 0.1771286 106 80 78 
-0.7466096 4.168824 0.2798665 112 67 64 
-0.7358097 4.156966 0.2805586 113 66 62 
-0.7220997 4.16701 0.2820993 116 76 73 
-0.8114799 4.083144 0.1753097 209 201 201 
-0.8114901 4.100339 0.178391 128 107 106 
-0.7973098 4.073715 0.1775248 117 87 88 
-0.79772 4.090641 0.1852029 113 75 72 
-0.7978497 4.090071 0.1813393 111 74 72 
-0.7097597 4.127256 0.2853463 106 62 58 
1.32075 3.208443 0.4913304 103 81 88   
-0.5990499 3.995238 0.2267793 235 232 230  
-0.7847399 4.019778 0.1724615 192 182 180  
-0.7606996 3.990412 0.1719554 100 64 61 
1.27559 3.160829 0.4869753 145 124 130  
-0.7723497 3.981689 0.171161 195 186 185 
-0.7616099 3.978325 0.1769426 107 76 74 
-0.75102 3.971813 0.1831563 109 68 66 
-0.7476 3.98753 0.2023552 124 74 70  
1.26799 3.14266 0.4947 100 75 82 
1.2807 3.141116 0.5052163 141 129 132 
1.28289 3.142755 0.5149398 217 214 214   
-0.7669497 3.948797 0.1715358 203 195 195 
-0.7635598 3.945759 0.1695652 186 175 175 
-0.7406898 3.943625 0.187877 95 59 57 
-0.749 3.980029 0.2106605 110 65 60 
-0.7210096 3.991261 0.2569483 111 69 63 
-0.7218398 4.00742 0.2599798 126 81 76 
-0.5245799 3.880547 0.2464002 176 148 149 
1.25822 3.10817 0.4953586 89 61 67 
1.27559 3.109667 0.5135294 233 231 231   
-0.75177 3.921021 0.1783045 134 113 113 
-0.7348098 3.971705 0.255261 113 74 71 
-0.7228798 3.97913 0.2584203 96 59 55 
-0.7219501 3.963538 0.2578693 100 64 61 
-0.6300597 3.928379 0.2654663 39 19 20   
1.210771 3.067393 0.5067407 55 33 36  
-0.72895 3.856908 0.16883 116 88 88 
-0.7188696 3.838616 0.1738012 106 69 69 
-0.7032298 3.90268 0.2572654 106 55 54 
-0.7398199 3.833939 0.1692517 232 229 228  
-0.7270097 3.82624 0.1742392 122 99 100 
-0.7163997 3.835721 0.1799219 97 57 58 
-0.6890997 3.877067 0.2579267 91 39 40 
-0.67071 3.87249 0.2727228 102 56 55 
-0.6719397 3.890065 0.2766159 114 69 67 
-0.6812 3.87719 0.2675035 97 48 47 
1.18498 3.038834 0.5147462 68 45 46 
1.17817 3.02759 0.5158575 62 40 42 
1.24557 3.031231 0.5326427 246 245 245 
-0.7398499 3.821662 0.1769722 237 234 233 
-0.71104 3.801924 0.1979008 93 59 59 
-0.7091898 3.82676 0.2042685 68 29 27 
-0.7063197 3.773907 0.1799758 112 81 80 
-0.7063197 3.773907 0.1799758 112 81 80 
-0.6672996 3.82722 0.2803364 120 74 72 
-0.6534699 3.824517 0.2767871 107 59 58 
1.11504 2.976636 0.4775399 240 235 236    
-0.7153096 3.717077 0.1515873 248 246 246 
-0.6996598 3.75054 0.1967426 101 63 61 
-0.69598 3.813411 0.2608884 102 62 59 
-0.6678399 3.816216 0.2881081 109 62 59 
1.13219 2.976926 0.5191448 75 53 53  
-0.6990299 3.703668 0.1717 110 84 86   
-0.4741797 3.570172 0.1852071 210 205 203     
1.10854 2.931344 0.5312122 183 172 171  
-0.48632 3.541313 0.2033308 242 238 238 
-0.4790697 3.554613 0.1986866 236 233 232     
1.03995 2.912481 0.5030385 212 190 193 
1.0495 2.89857 0.5364455 97 74 75 
1.03519 2.908163 0.5240615 140 106 110     
-0.7170199 3.562903 0.1090558 239 234 235 
-0.67027 3.601987 0.1830434 121 74 76 
-0.6828299 3.634819 0.2116117 111 63 64 
-0.6734399 3.62071 0.2121833 115 66 63  
0.9323201 2.903202 0.5042178 247 244 243 
0.9562302 2.917303 0.5117846 230 223 223 
1.03585 2.895211 0.5320256 80 52 54 
1.03411 2.884089 0.5405878 75 54 54  
1.05921 2.875859 0.5562587 250 250 250  
-0.6851897 3.577277 0.1725294 209 173 177 
-0.6625198 3.629447 0.2436717 117 69 65  
0.9328699 2.895812 0.5076221 234 225 224 
-0.6650299 3.56432 0.2173197 103 44 42 
-0.6366996 3.571794 0.2510853 116 55 49 
-0.6409296 3.592686 0.2573152 118 59 53 
-0.6159796 3.575631 0.2651449 116 60 56 
-0.60215 3.565092 0.2618507 114 63 60 
1.00279 2.850758 0.5427901 80 62 60 
1.00433 2.855286 0.5469294 84 68 66      
-0.6693 3.552995 0.2249047 106 47 43 
-0.6143097 3.545372 0.2639037 107 56 54 
-0.5924796 3.547257 0.2654761 98 58 57 
-0.6030396 3.552792 0.2635682 105 58 56 
-0.4904499 3.476432 0.2584183 218 215 213 
0.9947 2.833794 0.5687616 237 234 233 
-1.09561 3.342153 -0.2376194 179 159 158   
-0.6278099 3.541371 0.2668853 109 55 53 
-0.5169296 3.476793 0.2668085 44 29 28   
0.9793301 2.826529 0.575128 243 241 241 
0.9908003 2.819991 0.579025 247 246 247  
-1.03014 3.306583 -0.2150889 88 67 68 
-0.6595898 3.50127 0.2446118 101 45 40 
-0.66052 3.501491 0.2443891 101 46 41 
-0.56318 3.488469 0.2842079 49 36 37          
-1.0309 3.271536 -0.2142608 125 110 110 
-0.6782798 3.482397 0.2408206 112 59 52 
-0.6753696 3.498969 0.2391645 106 52 47 
-0.63836 3.495488 0.2609138 100 55 52 
-0.5767497 3.469097 0.2863303 58 45 47 
-0.5671996 3.463809 0.294585 86 72 74 
-0.5641198 3.477199 0.2923099 83 70 71 
-0.5650997 3.478302 0.2920403 77 64 65 
-0.5480598 3.45676 0.305281 67 49 51 
-0.3411498 3.289914 0.2693478 248 245 245   
-0.2972698 3.299871 0.286489 238 229 227       
0.86983 2.828648 0.589818 69 49 52 
0.9294499 2.821402 0.5996307 88 69 63 
0.9578198 2.807257 0.6093395 150 140 138   
-1.02631 3.234159 -0.2146325 243 241 240 
-0.9468098 3.238661 -0.1763335 103 73 74 
-0.8362998 3.176657 -0.1412227 89 64 65 
-0.6658697 3.46764 0.2470316 97 48 42 
-0.6557698 3.475033 0.2564929 112 69 65 
-0.6278796 3.451484 0.2672606 82 56 56 
-0.5657796 3.447358 0.2934971 62 48 49 
-0.3579197 3.287637 0.2832769 229 207 209 
-0.3306499 3.2952 0.3002535 227 203 204 
-0.3471298 3.292722 0.2920792 222 199 198 
-0.3210497 3.296786 0.3101265 201 175 168 
-0.2490497 3.260371 0.3116401 233 229 226      
-0.6416497 3.444395 0.2631164 90 59 57 
-0.6417899 3.427739 0.2617815 83 53 50 
-0.6540197 3.43426 0.2559558 78 42 38 
-0.6111798 3.42362 0.2725121 62 44 45 
-0.3729 3.280252 0.2724996 182 158 160    
0.4815903 2.852023 0.4299824 203 174 169 
0.6241001 2.842222 0.5030722 143 107 109 
0.7575001 2.815014 0.567326 200 193 192 
0.88629 2.784825 0.6194821 249 247 247 
0.8982902 2.789198 0.6133378 222 217 216     
-0.6635298 3.362758 0.199564 126 82 77 
-0.3938498 3.262734 0.2878596 205 171 176 
-0.3998899 3.264053 0.2804367 216 187 192 
-0.38134 3.264136 0.298176 208 166 171 
-0.2603197 3.234327 0.3455805 206 192 183   
0.3369403 2.887648 0.3784012 248 245 244 
-0.6947597 3.078586 -0.06512536 125 78 71 
-0.6796398 3.089379 -0.04377092 121 80 76 
-0.6238998 3.363475 0.2575094 59 33 31 
-0.5810999 3.351198 0.2650937 58 37 35 
-0.4063597 3.247159 0.3047009 129 93 97 
-0.4075799 3.258675 0.2947766 183 151 156 
-0.41503 3.263467 0.2970175 204 174 179 
-0.3988199 3.260862 0.2995903 187 151 157 
-0.3955398 3.262298 0.2992016 197 161 166 
-0.3174 3.277711 0.3838238 187 155 139  
0.1226301 2.892819 0.2960302 238 223 223 
0.4320502 2.836409 0.4301654 126 71 63 
0.5488901 2.815484 0.4952933 112 86 84 
-0.7139397 3.065805 -0.07121564 160 139 135 
-0.7005199 3.062469 -0.06294563 142 118 113 
-0.7013698 3.063659 -0.06055916 145 122 117 
-0.6891798 3.061242 -0.04973055 135 109 105 
-0.68651 3.069618 -0.05230571 117 79 74 
-0.6956595 3.074613 -0.05757834 126 85 79 
-0.6660699 3.051893 -0.04625012 126 97 94 
-0.6161298 3.047904 -0.01519502 96 69 70 
-0.6442999 3.313979 0.2253499 84 50 46 
-0.6337699 3.32879 0.2410408 61 31 28 
-0.6218199 3.337206 0.2534057 62 37 34 
-0.6034397 3.300226 0.2548228 66 41 38 
-0.6072897 3.309813 0.2555822 72 47 44 
-0.5612596 3.292058 0.2623633 67 43 40 
-0.5133399 3.254008 0.2543612 86 56 52 
-0.5269197 3.265844 0.2591855 78 51 47 
-0.4884896 3.232372 0.2580287 69 42 40 
-0.5043796 3.249924 0.2607518 67 40 37 
-0.4177098 3.239327 0.2934444 177 143 148 
-0.2761397 3.216341 0.3829738 147 127 119 
0.11519 2.892261 0.2949037 232 212 212 
0.2478104 2.859598 0.3743808 94 58 52 
0.2750702 2.859954 0.3865079 98 56 52 
0.3055601 2.85192 0.3931605 120 69 66   
-0.7151098 3.053944 -0.06110289 248 247 246 
-0.6040797 3.035629 0.008655057 105 84 82 
-0.6487799 3.279344 0.2281903 74 41 40 
-0.6429796 3.277734 0.2336985 86 51 47 
-0.5723801 3.283588 0.2620527 70 45 42 
-0.5730699 3.270487 0.2654904 79 50 47 
-0.5368499 3.257141 0.2610213 90 59 56 
-0.5126901 3.241359 0.2639343 69 41 37 
-0.4906797 3.224045 0.2691098 98 67 65 
-0.4648299 3.204884 0.2817824 96 60 60 
-0.3659 3.222261 0.3553106 120 84 81 
0.05831002 2.896317 0.2979516 161 117 116 
0.1653399 2.844554 0.337104 123 80 79 
0.26086 2.853698 0.3893972 118 81 77 
0.2841401 2.829383 0.3844795 152 130 129 
0.2841401 2.829383 0.3844795 144 118 116 
-0.6169701 3.243882 0.246242 96 57 54 
-0.6035699 3.254638 0.2593291 97 60 58 
-0.6041998 3.254935 0.2597196 97 60 58 
-0.5767598 3.255239 0.2645788 94 61 59 
-0.5596699 3.247364 0.2667896 81 53 50 
-0.5635599 3.247512 0.2687959 78 49 46 
-0.5583695 3.24874 0.2731071 95 64 61 
-0.4744 3.200418 0.2842107 79 46 45 
-0.4730997 3.201819 0.2918209 83 51 50 
-0.4699697 3.192036 0.2919826 93 59 58 
0.01545 2.868871 0.273888 137 85 83 
0.02059031 2.855036 0.2750402 125 73 69 
0.00537014 2.852004 0.2698637 114 64 61 
-0.6075696 3.238193 0.2587934 97 59 57 
-0.5740899 3.225013 0.2637576 91 57 56 
-0.5323399 3.179543 0.2705523 78 50 49 
-0.4530296 3.184837 0.3104011 94 59 57 
-0.01976967 2.8522 0.2722428 122 80 76 
0.03928995 2.822849 0.2960518 249 247 246 
0.07491015 2.811823 0.3099342 246 244 244 
0.07634019 2.824434 0.3001905 215 204 202  
0.08908033 2.823546 0.3140247 232 227 226 
-0.5947098 3.211443 0.2627895 95 61 59 
-0.5822697 3.202629 0.262976 90 58 57 
-0.5472497 3.149864 0.2626229 101 68 65 
-0.5426496 3.164825 0.2682425 85 55 53 
-0.5310698 3.176305 0.2722872 78 50 48 
-0.5212497 3.166431 0.2781259 82 50 48 
-0.5198298 3.172851 0.2789499 81 49 48 
-0.5206199 3.161244 0.2839341 83 49 47 
-0.5115799 3.158981 0.2822654 84 51 49 
-0.4596601 3.174826 0.3178721 99 66 63 
-0.1126499 2.831156 0.2315387 139 109 108 
-0.09328984 2.837063 0.2433777 141 110 109 
-0.5740899 3.152185 0.2590455 98 66 63 
-0.5442699 3.135688 0.2590171 104 70 67 
-0.16225 2.823246 0.2229836 162 145 142 
-0.6086196 2.980424 0.1040782 201 193 191 
-0.5977396 2.994742 0.1152448 118 86 84 
-0.5797895 3.123999 0.2518108 102 68 65 
-0.5489897 3.107088 0.2649755 88 51 48 
-0.5371999 3.118468 0.2703292 93 57 54   
-0.5940399 3.024562 0.1845296 107 68 64 
-0.5977296 3.044644 0.1911253 109 70 65 
-0.2695098 2.786251 0.1745981 130 103 99 
-0.2832298 2.793786 0.1710023 121 86 81  
-0.5874099 2.93874 0.1295423 95 63 59 
-0.3181 2.780066 0.1786587 150 133 129   
-0.5057697 2.96483 0.250176 111 70 64 
-0.5030698 2.959322 0.2505068 111 69 62  
-0.5641499 2.962962 0.224859 47 28 29 
-0.5249099 2.964354 0.2590141 97 60 55 
-0.5055498 2.94907 0.251997 105 64 58 
-0.6204199 2.874128 0.1405785 240 239 237 
-0.49546 2.904505 0.2516325 105 61 55 
-0.6221899 2.861361 0.1497178 239 238 236 
-0.6069098 2.853623 0.156539 99 86 85 
-0.5893297 2.84185 0.1578245 77 52 51 
-0.49863 2.885125 0.2558369 91 52 47 
-0.4851599 2.877287 0.2592203 95 58 52         
-0.50353 2.450533 0.1450439 107 64 60 
-0.4291201 2.157707 0.1889355 144 107 101 
-0.4204197 1.911502 0.1121328 128 85 80 
