ply
format ascii 1.0
comment Created by Open3D
element vertex 1278
property double x
property double y
property double z
property uchar red
property uchar green
property uchar blue
end_header
0.0793201 1.58795 -0.142454 94 64 50
0.0798499 1.58763 -0.144911 130 109 98
0.0568 1.57539 -0.130541 73 41 24
0.0752002 1.57679 -0.143854 80 47 33
0.0824901 1.58064 -0.150108 209 202 197
0.0492899 1.56539 -0.130874 139 123 115
0.0519201 1.56564 -0.129887 122 103 94
0.0606701 1.56621 -0.138147 75 41 26
0.0726 1.56573 -0.144222 77 43 29
0.0790302 1.5695 -0.15107 156 140 133
0.12806 1.56407 -0.173025 239 235 232
0.0534503 1.55454 -0.139693 74 42 29
0.0688101 1.55548 -0.14963 74 41 27
0.0675303 1.55473 -0.143873 70 35 19
0.0781099 1.55575 -0.157686 185 176 170
0.0619203 1.54616 -0.148278 64 30 16
0.06804 1.54314 -0.163087 134 115 105
0.0263001 1.50008 -0.158116 76 49 36
0.0162999 1.47994 -0.159375 93 64 50
0.0152298 1.46842 -0.160799 84 55 41
0.0383302 1.47788 -0.157404 78 50 37
0.0403701 1.45575 -0.176149 84 59 46
0.0461299 1.46205 -0.183245 167 155 149
0.03326 1.45016 -0.168386 72 46 32
0.03954 1.44424 -0.176126 84 60 48
0.0446102 1.45037 -0.185831 219 214 209
0.04343 1.44921 -0.185064 179 170 162
0.0338398 1.43892 -0.168453 74 48 35
0.0401999 1.43366 -0.176277 98 76 65
0.0446703 1.43854 -0.18518 203 196 191
0.0155603 1.4293 -0.13531 199 192 188
0.0232002 1.43067 -0.142654 71 49 38
0.0344102 1.42174 -0.163271 70 47 35
0.04309 1.42335 -0.173786 96 76 65
0.03813 1.42838 -0.16634 77 52 40
0.0432102 1.42754 -0.185198 205 199 194
0.0415699 1.42782 -0.187191 229 224 221
0.0169603 1.41303 -0.13728 160 149 142
0.0271303 1.42 -0.141075 71 49 38
0.03533 1.41032 -0.1588 59 36 27
0.0403902 1.41769 -0.165317 72 49 37
0.04344 1.41239 -0.174633 99 82 72
0.0463101 1.41814 -0.182598 214 208 204
0.0165903 1.39848 -0.138551 113 96 87
0.0183803 1.39884 -0.138525 98 80 70
0.0299703 1.4092 -0.145619 61 38 27
0.0362403 1.39908 -0.15896 55 33 23
0.0407802 1.40528 -0.166973 60 37 26
0.0429403 1.40127 -0.175817 120 104 96
0.0412003 1.40806 -0.184982 223 218 214
0.0105602 1.38839 -0.137253 185 176 170
0.0222999 1.3885 -0.142024 77 55 44
0.0471503 1.39034 -0.172937 130 115 108
0.03813 1.39471 -0.165644 61 38 28
0.0415799 1.39427 -0.167713 67 44 33
0.0432302 1.3902 -0.176735 144 131 123
0.0145399 1.37824 -0.141195 95 75 65
0.0341202 1.38333 -0.167639 77 53 39
0.03887 1.37861 -0.176381 130 115 107
0.0413601 1.3783 -0.184201 232 230 228
0.0302803 1.36663 -0.161278 64 40 30
0.0352599 1.37296 -0.167942 70 46 35
0.0386001 1.36774 -0.175911 149 136 129
0.0351302 1.37358 -0.185897 218 214 210
0.0370199 1.36309 -0.184074 228 225 221
-0.38772 1.34298 0.435175 107 90 80
-0.38517 1.34611 0.424884 231 228 224
-0.38635 1.34594 0.424823 222 218 213
0.0310399 1.35635 -0.153277 75 50 39
0.0391599 1.3569 -0.174791 162 150 143
0.0348899 1.36203 -0.166619 75 51 40
-0.38377 1.33272 0.435587 153 141 133
-0.37465 1.32984 0.416709 230 227 223
0.0331103 1.34043 -0.155036 79 53 43
0.0355403 1.34739 -0.163613 74 48 37
0.0396801 1.34773 -0.161776 79 55 45
-0.38084 1.32218 0.435842 221 217 211
-0.37096 1.31938 0.416745 167 156 148
0.00282016 1.32714 -0.133633 205 198 194
0.0401799 1.33599 -0.161774 79 53 44
0.0509602 1.33198 -0.164235 145 131 123
0.0478403 1.34029 -0.178554 233 231 230
-0.51353 1.26846 -0.600536 228 225 223
-0.51511 1.27436 -0.610838 200 195 192
-0.5138 1.26836 -0.62206 134 124 120
-0.36278 1.30445 0.414567 110 91 80
0.0217201 1.31749 -0.152911 84 58 48
0.03568 1.32506 -0.155664 68 40 29
-0.51189 1.25555 -0.601341 130 116 112
-0.51324 1.2621 -0.610421 93 74 70
-0.5107 1.25597 -0.621001 113 95 90
-0.50877 1.26258 -0.630574 212 207 205
-0.36258 1.29785 0.424787 212 206 201
-0.35731 1.29405 0.414401 108 88 78
-0.34825 1.29093 0.400351 214 208 203
0.02975 1.30731 -0.14979 106 81 70
0.0331398 1.31347 -0.156968 90 64 52
0.03783 1.3085 -0.164316 105 84 74
-0.51004 1.24358 -0.601261 65 43 36
-0.51427 1.24798 -0.590546 213 209 206
-0.51153 1.24979 -0.609773 74 52 45
-0.50969 1.24351 -0.620785 153 143 139
-0.50538 1.25045 -0.629849 236 234 232
-0.34925 1.28386 0.41599 192 184 176
-0.34461 1.2796 0.405708 103 83 71
-0.35103 1.29002 0.405391 124 106 96
0.0297901 1.29561 -0.119149 69 50 39
0.0261098 1.30041 -0.12811 73 53 42
0.0345599 1.30235 -0.157063 85 61 48
-0.50892 1.23584 -0.589699 155 145 141
-0.33817 1.26923 0.406327 177 165 159
-0.33859 1.26912 0.406055 176 165 158
-0.33895 1.27597 0.397283 129 111 101
-0.33613 1.27769 0.391202 224 220 215
-0.33624 1.27809 0.39107 229 224 220
0.03078 1.2849 -0.119704 47 25 13
0.0387899 1.29193 -0.155106 78 55 43
-0.50518 1.21633 -0.578516 238 235 233
-0.50341 1.22643 -0.599768 95 78 71
-0.50581 1.22448 -0.589956 130 117 111
-0.33434 1.26569 0.397492 101 78 68
-0.32812 1.26229 0.38878 119 99 90
0.0254699 1.27901 -0.111397 176 169 163
0.0308701 1.27251 -0.191744 173 163 158
-0.49884 1.20391 -0.577306 186 178 176
-0.49491 1.20737 -0.592472 176 167 163
-0.50136 1.21367 -0.604695 234 231 228
-0.32223 1.24549 0.398688 234 231 228
-0.32987 1.25539 0.397485 176 164 157
0.0208799 1.2674 -0.111349 233 231 228
0.0365101 1.25989 -0.168988 56 35 25
0.0278699 1.26466 -0.167739 65 43 32
0.0342499 1.26194 -0.192011 234 231 228
-0.31762 1.24339 0.384352 107 87 77
-0.31409 1.23308 0.384122 156 142 135
-0.31161 1.2399 0.375896 151 137 129
-0.30581 1.2361 0.366713 232 229 226
-0.00812992 1.24599 -0.113294 156 142 137
-0.00154003 1.25683 -0.112385 212 205 202
-0.0237797 1.25279 -0.116754 239 236 233
0.00411001 1.24601 -0.121771 89 58 43
0.0229003 1.25761 -0.121106 85 61 52
0.0382201 1.25473 -0.159999 48 28 18
0.0315801 1.24761 -0.172978 75 56 47
0.0373599 1.25703 -0.18182 168 157 150
-0.48563 1.18321 -0.567995 139 128 123
-0.31036 1.22285 0.383564 225 221 216
-0.30723 1.22927 0.375858 101 80 70
-0.30113 1.22557 0.36666 163 150 143
0.0166203 1.24602 -0.120701 85 58 43
0.0457703 1.23882 -0.125648 103 79 66
0.0396601 1.24322 -0.141047 71 46 35
0.0436699 1.23816 -0.150342 65 41 27
0.0359303 1.23878 -0.164457 65 45 37
0.0322301 1.24232 -0.182027 224 221 219
-0.4819 1.17549 -0.555187 227 224 221
-0.47955 1.17384 -0.553516 234 231 228
-0.4727 1.1719 -0.566932 125 110 106
-0.29768 1.21059 0.37824 222 217 212
-0.29929 1.20996 0.374214 195 186 181
-0.30345 1.22008 0.375205 125 107 99
-0.29609 1.21687 0.36648 114 93 85
-0.29551 1.21695 0.365712 124 104 95
-0.28884 1.21311 0.358251 199 191 186
0.0503999 1.23343 -0.133828 90 66 56
0.0392501 1.22494 -0.152475 78 56 42
0.0416199 1.22732 -0.168363 174 164 158
-0.46454 1.15526 -0.54031 239 237 235
-0.4691 1.16337 -0.553961 139 127 123
-0.4585 1.1582 -0.566147 227 224 223
-0.29257 1.20659 0.366182 111 89 81
-0.28631 1.20254 0.357911 103 80 72
0.0449101 1.21536 -0.120932 57 38 28
0.0444199 1.21896 -0.13307 59 41 29
0.0459 1.22222 -0.154712 79 58 48
0.04308 1.21553 -0.167366 122 102 93
-0.28811 1.19415 0.369345 233 230 226
-0.2813 1.18911 0.357583 146 131 124
-0.27112 1.19018 0.335016 219 215 211
-0.27747 1.19353 0.343884 162 151 146
0.04697 1.20448 -0.117046 46 27 18
0.0478603 1.21065 -0.127165 53 36 24
0.0528399 1.20428 -0.13951 60 41 30
0.0413 1.20239 -0.165148 93 68 58
0.0336 1.21076 -0.174813 112 89 79
0.0317003 1.20338 -0.18755 106 80 69
-0.2792 1.17842 0.357485 239 236 234
-0.27477 1.18501 0.349624 87 66 58
-0.26664 1.17987 0.335516 101 82 74
-0.27319 1.18338 0.343783 74 53 44
-0.26865 1.18052 0.341851 74 52 43
0.0523802 1.19927 -0.125352 45 28 17
0.0461399 1.19201 -0.139402 51 33 23
0.0475999 1.19869 -0.143302 56 38 28
0.0545003 1.19917 -0.149003 80 60 51
0.0570003 1.19295 -0.151248 68 47 39
0.0570003 1.19295 -0.151248 68 47 39
-0.27273 1.17434 0.350088 191 184 178
-0.26686 1.16845 0.341717 149 136 131
-0.26059 1.16378 0.328557 68 46 38
-0.25987 1.17541 0.327943 137 123 117
-0.25498 1.16961 0.320607 133 119 114
-0.24823 1.16517 0.315872 105 86 79
-0.2441 1.17044 0.304206 229 226 224
-0.23997 1.17163 0.312681 210 205 202
-0.1927 1.16678 0.221508 99 73 61
-0.18505 1.17754 0.221161 135 115 106
-0.18534 1.17746 0.215893 170 156 148
-0.17976 1.17326 0.207013 173 159 153
-0.17625 1.16768 0.196161 190 176 168
0.0284602 1.18867 -0.125775 44 27 17
0.0407001 1.18499 -0.12839 54 36 26
0.04234 1.18609 -0.127157 53 35 25
-0.25897 1.15351 0.3342 187 179 176
-0.25485 1.15848 0.323057 69 47 39
-0.24294 1.15848 0.30945 80 56 50
-0.2353 1.15682 0.301727 81 57 49
-0.23471 1.15658 0.300911 81 56 49
-0.22412 1.16462 0.286419 222 217 214
-0.22124 1.15501 0.286313 85 60 52
-0.20972 1.16333 0.27867 193 182 177
-0.21012 1.15607 0.273691 112 88 81
-0.2017 1.16074 0.264333 166 148 142
-0.20249 1.16668 0.252624 238 236 233
-0.19147 1.15783 0.226217 96 67 56
-0.18434 1.15699 0.219682 80 52 41
-0.18217 1.16663 0.216628 81 53 39
-0.17947 1.16048 0.208152 83 53 41
-0.177 1.16655 0.198715 161 141 132
-0.1724 1.16089 0.18975 132 104 94
-0.13136 1.16286 0.123376 192 177 169
-0.11358 1.16548 0.106653 192 175 168
-0.12365 1.16423 0.0778251 226 219 215
-0.12665 1.15848 0.0625921 165 145 135
-0.12558 1.15907 0.0630681 169 150 141
-0.11523 1.16479 0.0560171 209 199 193
-0.11345 1.15683 0.0451841 127 99 88
-0.11362 1.1582 0.0453681 140 114 102
-0.0829199 1.16902 0.0304761 207 192 186
-0.0609897 1.16555 -0.0016719 157 133 122
-0.04367 1.17346 -0.0114609 219 209 204
0.03674 1.17222 -0.12845 65 45 35
0.18348 1.1827 -0.264115 227 223 221
0.192 1.1813 -0.275449 140 126 121
0.21577 1.18329 -0.287583 159 151 146
-0.25281 1.14951 0.326664 194 186 183
-0.23544 1.14928 0.309148 149 134 130
-0.23177 1.14618 0.30147 162 149 143
-0.21997 1.14421 0.286546 172 159 156
-0.21948 1.14434 0.28641 172 159 156
-0.22694 1.15293 0.292744 79 53 46
-0.2138 1.15126 0.279471 96 72 64
-0.20881 1.14687 0.273073 171 158 153
-0.19804 1.15463 0.270106 110 84 76
-0.19858 1.14812 0.257488 164 149 142
-0.17802 1.14668 0.221026 219 213 209
-0.19498 1.14905 0.218091 128 107 98
-0.18248 1.15536 0.21661 89 62 53
-0.18081 1.14442 0.218788 238 235 233
-0.17945 1.14845 0.206511 165 151 144
-0.17606 1.15506 0.199173 94 66 56
-0.17079 1.1501 0.189395 131 109 101
-0.1366 1.15055 0.123527 105 74 63
-0.13612 1.15473 0.113314 135 109 97
-0.13898 1.14841 0.103018 107 80 67
-0.13829 1.15371 0.0854661 131 105 93
-0.14017 1.15272 0.0837741 126 99 88
-0.14073 1.15384 0.0892931 139 114 104
-0.11997 1.15468 0.0763211 116 87 76
-0.13839 1.14286 0.0734211 124 104 93
-0.137 1.1437 0.0747081 118 97 85
-0.13122 1.14623 0.0618061 111 85 73
-0.13111 1.14587 0.0617491 112 87 75
-0.12045 1.15211 0.0550331 105 75 64
-0.11786 1.14604 0.0456551 131 110 102
-0.11306 1.15004 0.0346431 111 82 74
-0.0479 1.15717 -0.0208409 101 73 62
-0.0507 1.15063 -0.0363659 130 111 102
0.0126902 1.16254 -0.0693069 68 43 31
0.02309 1.16343 -0.0857489 82 59 49
0.17844 1.17322 -0.258627 133 118 112
0.1712 1.16813 -0.252687 112 94 87
0.18914 1.1733 -0.263885 88 66 59
0.19717 1.17092 -0.272148 126 109 103
0.2027 1.17546 -0.279499 101 83 76
0.21032 1.17941 -0.286776 102 86 81
-0.2188 1.13878 0.280849 231 228 225
-0.22197 1.13696 0.280831 238 235 233
-0.21578 1.13857 0.279589 237 235 232
-0.1775 1.14247 0.196169 221 216 214
-0.16097 1.14016 0.180263 238 237 234
-0.16384 1.12937 0.105698 225 219 216
-0.14593 1.14036 0.114504 145 127 120
-0.15695 1.13479 0.0926261 198 188 185
-0.15283 1.13614 0.0975251 198 188 184
-0.1451 1.14201 0.0861831 133 112 104
-0.15543 1.13844 0.0774881 155 139 132
-0.13647 1.13492 0.0608801 237 233 232
-0.13278 1.13872 0.0543901 198 189 185
0.00470987 1.14876 -0.0704219 105 84 75
0.00255027 1.14098 -0.0842719 102 81 73
0.0017201 1.14614 -0.0977839 60 35 23
0.000420242 1.14585 -0.0976529 60 35 23
0.13176 1.15799 -0.205594 169 156 149
0.13772 1.15583 -0.219326 107 86 78
0.13762 1.15846 -0.217138 139 122 116
0.14803 1.15812 -0.22564 92 70 63
0.16078 1.16412 -0.247597 116 97 91
0.17628 1.15693 -0.249148 184 174 170
0.1696 1.15681 -0.252167 150 135 130
0.17961 1.16075 -0.257471 151 137 131
0.17963 1.16206 -0.25772 130 114 107
0.19419 1.1634 -0.264508 213 207 203
-0.12574 1.11729 0.00364009 234 232 231
0.00466028 1.13185 -0.0828119 204 198 194
0.00456014 1.13566 -0.0955609 75 52 42
0.00502029 1.13003 -0.105734 61 34 23
0.00807014 1.13069 -0.105857 63 37 27
0.13849 1.14958 -0.207008 89 66 56
0.14533 1.15031 -0.217278 103 83 75
0.15275 1.1476 -0.227655 201 194 190
-0.18701 1.09818 -0.0748639 163 149 145
0.00450006 1.12419 -0.0972309 151 136 130
0.11288 1.1371 -0.189904 114 90 81
0.14038 1.14025 -0.195573 196 188 184
0.15222 1.14284 -0.202852 219 213 211
-0.00466999 1.07533 -0.0910579 232 227 225
0.0239102 1.07566 -0.114682 64 39 29
0.0258299 1.08179 -0.123659 61 38 26
-0.1957 1.03645 -0.360667 230 226 224
0.00913015 1.06783 -0.0921299 184 171 166
0.0158602 1.06175 -0.103846 77 47 39
0.02871 1.06353 -0.112227 71 44 32
0.0247299 1.06705 -0.14083 70 44 32
-0.12431 1.03979 -0.281358 234 232 230
0.0112001 1.04863 -0.105557 74 44 37
0.0115801 1.05407 -0.112236 68 38 32
0.0207602 1.05007 -0.118118 70 41 33
0.0224201 1.04693 -0.125715 74 46 36
0.0310499 1.05617 -0.145196 117 93 85
-0.21535 0.99872 -0.403747 235 233 231
0.00977007 1.04291 -0.0959079 115 90 81
0.00832 1.03684 -0.0873529 206 198 193
0.0124299 1.03779 -0.104886 80 50 39
0.0253803 1.04174 -0.135019 84 54 44
0.0128099 1.0322 -0.0951759 93 67 58
0.0113603 1.02612 -0.0866219 171 158 153
0.0229003 1.03521 -0.110767 69 41 30
0.0310499 1.02924 -0.126387 72 43 32
-0.18566 0.98043 -0.39485 205 198 196
0.00943008 1.01431 -0.0863389 153 138 133
0.00916019 1.01937 -0.0974409 67 40 32
0.02098 1.01273 -0.10159 60 33 25
0.0222899 1.02072 -0.113643 66 38 28
0.0259101 1.01427 -0.123379 71 44 34
0.0227 1.01915 -0.133817 78 50 41
0.03742 1.01936 -0.1457 223 217 214
-0.18298 0.97156 -0.407192 239 237 235
-0.18969 0.96186 -0.430405 235 233 231
-0.19727 0.96846 -0.44526 237 235 233
0.59121 1.13298 0.515611 233 228 226
0.00774017 1.00256 -0.0866879 202 194 191
0.00820032 1.0021 -0.0870579 181 169 165
0.0135399 1.00668 -0.0954289 72 44 34
0.0190302 1.00045 -0.10298 62 35 26
0.00674024 1.00367 -0.0984159 73 46 37
0.0280401 1.01058 -0.110911 65 39 28
0.0305502 1.00376 -0.12126 71 43 34
0.0295402 1.00781 -0.133139 86 59 48
0.0348202 1.00245 -0.1408 185 172 169
0.58581 1.12081 0.526084 155 137 133
0.59112 1.1235 0.51549 109 85 80
0.00701013 0.98682 -0.0828759 229 224 222
0.00733009 0.99077 -0.0861979 191 182 178
0.01115 0.99643 -0.0957329 75 48 38
0.0109703 0.99637 -0.0957999 75 48 38
0.00612989 0.99213 -0.0981329 83 55 45
0.0257403 0.99306 -0.114607 65 38 29
0.59109 1.11371 0.526564 108 84 81
0.59743 1.11932 0.521356 81 57 48
0.59668 1.11948 0.509215 208 200 197
0.00856987 0.97557 -0.0816559 221 215 212
0.00484005 0.97398 -0.0964109 87 59 50
0.00888029 0.9846 -0.0960639 81 54 45
0.0064899 0.98086 -0.0932139 97 73 65
0.59408 1.10575 0.529231 211 204 200
0.5949 1.10959 0.519341 61 34 25
0.59637 1.10472 0.511246 72 45 38
0.0040299 0.96792 -0.0860969 178 166 161
0.0200001 0.97271 -0.105178 86 58 48
0.02166 0.96881 -0.118656 83 55 46
0.59433 1.10031 0.519384 134 117 111
0.59633 1.09602 0.511636 81 56 48
0.59724 1.10035 0.503809 111 88 81
0.58984 1.0932 0.492156 175 161 157
0.0032703 0.95594 -0.0859459 179 165 161
0.00131002 0.95413 -0.0948719 108 79 73
0.0138699 0.95466 -0.0990239 95 64 55
0.0248701 0.96237 -0.104079 84 56 47
0.59759 1.09147 0.519933 213 206 202
0.59697 1.08663 0.511416 166 153 147
0.59703 1.08227 0.504338 117 96 89
0.59375 1.08382 0.489504 117 94 87
0.58744 1.08662 0.47902 214 204 200
0.59935 1.08379 0.473714 173 155 150
0.60311 1.08976 0.470241 237 233 230
-0.000120014 0.94372 -0.0871839 176 162 157
0.02025 0.93931 -0.109999 78 51 42
0.59709 1.08185 0.519641 237 233 232
0.59667 1.07709 0.511395 235 231 229
0.59618 1.07224 0.502944 199 188 184
0.59616 1.07948 0.481864 151 130 123
0.59463 1.07478 0.489473 70 42 33
0.5993 1.07404 0.472403 163 144 137
0.60342 1.08049 0.470483 205 195 190
-0.00188002 0.93727 -0.0751599 234 230 228
-0.00955996 0.92589 -0.0800509 216 210 209
-0.00295004 0.93157 -0.0878599 142 122 118
0.00754991 0.93742 -0.0934069 97 66 57
0.0117299 0.92668 -0.0972919 97 67 58
0.59653 1.06741 0.511033 239 236 235
0.59554 1.0627 0.502613 236 232 231
0.59601 1.06736 0.494228 122 102 95
0.59695 1.06975 0.48067 100 72 64
0.5977 1.06212 0.48529 73 45 36
0.59922 1.06461 0.472659 111 83 77
0.60234 1.06942 0.464785 235 230 228
-0.0014399 0.92448 -0.0744339 227 222 220
0.00223032 0.91779 -0.0843179 123 94 88
0.00018993 0.91414 -0.0739689 217 210 207
-0.00173983 0.91995 -0.0873849 122 95 89
0.0108301 0.91823 -0.0909249 105 73 65
0.59526 1.05788 0.494183 213 205 201
0.59546 1.05231 0.48481 141 124 117
0.59739 1.05675 0.476415 72 44 35
0.60289 1.06024 0.465859 182 169 165
0.59745 1.05131 0.46652 104 82 75
-0.000799984 0.90889 -0.0862199 121 92 86
0.00609985 0.90306 -0.0931009 94 63 56
0.0235302 0.90677 -0.113059 86 57 50
0.0198499 0.9096 -0.121635 95 65 57
0.59369 1.04274 0.484819 237 234 231
0.59601 1.04726 0.476499 81 55 47
0.59374 1.04159 0.466876 65 37 29
0.60038 1.04981 0.456974 212 205 201
0.59804 1.0404 0.457794 166 151 146
-0.000959724 0.89708 -0.0866969 108 78 71
0.00864998 0.89365 -0.0908429 93 62 54
0.0039002 0.89043 -0.0957839 90 60 52
0.01917 0.89355 -0.112905 86 57 49
0.0199601 0.89813 -0.121676 94 63 56
0.59421 1.03769 0.476502 175 164 158
0.59484 1.0334 0.46939 105 83 77
0.59858 1.03796 0.446532 230 227 224
0.00150028 0.88501 -0.0657979 236 232 231
0.00108018 0.88566 -0.0874599 96 65 56
0.0148303 0.87969 -0.112438 87 59 52
0.0291502 0.88191 -0.130952 215 208 206
0.59384 1.02386 0.469587 199 190 186
0.59442 1.02837 0.460535 69 42 34
0.59365 1.02332 0.451844 100 75 69
0.59265 1.018 0.442696 175 163 159
0.00330988 0.87361 -0.0656019 224 217 215
-0.00301012 0.87541 -0.0846999 113 85 80
-0.00946984 0.86851 -0.0787409 213 205 203
-0.00243983 0.86425 -0.0830859 128 102 98
0.0324298 0.87095 -0.130924 235 230 229
0.59371 1.01857 0.46053 114 94 87
0.59291 1.01309 0.44997 77 49 41
0.59223 1.00824 0.443391 97 70 63
-0.00539002 0.85782 -0.0756109 177 161 157
0.0057303 0.86095 -0.0786929 122 96 91
0.00178018 0.85368 -0.0824469 81 53 48
0.00962987 0.85886 -0.0854939 85 55 48
0.00659004 0.8608 -0.0889079 91 61 54
0.59678 1.00763 0.460449 205 197 194
0.59576 1.00317 0.452531 148 130 125
0.59104 1.00195 0.433334 179 164 161
0.58792 0.9969 0.42545 230 226 225
0.54836 0.97968 0.267626 212 204 202
0.55378 0.98438 0.258902 190 178 173
0.55846 0.9832 0.252122 136 107 101
0.56972 0.98606 0.244534 166 140 136
0.00584999 0.84907 -0.0729129 108 86 80
0.00997987 0.84417 -0.0811369 74 47 39
0.00803009 0.84953 -0.0801099 76 48 40
0.01112 0.85155 -0.0900509 75 48 41
0.0250403 0.85166 -0.103516 79 52 44
0.59539 0.9935 0.453053 234 229 227
0.59384 0.98905 0.444964 166 152 147
0.59352 0.99821 0.444039 88 60 53
0.59091 0.99234 0.433588 97 70 63
0.58868 0.98703 0.425264 154 135 131
0.54654 0.96915 0.269185 189 178 174
0.55106 0.97337 0.259068 91 62 52
0.0217902 0.8311 -0.100373 71 45 37
0.0200903 0.83823 -0.106718 76 49 41
0.59163 0.98303 0.435765 89 61 53
0.58945 0.97782 0.427688 86 57 49
0.58909 0.98283 0.418748 197 186 183
0.54392 0.95869 0.268672 213 207 202
0.54643 0.96132 0.256271 73 43 36
0.0239102 0.81981 -0.0988389 77 51 42
0.02482 0.82593 -0.109354 80 51 43
0.0246603 0.81991 -0.119745 136 113 108
0.59188 0.97333 0.435707 189 177 173
0.5909 0.97721 0.442757 234 230 227
0.59138 0.9685 0.427845 121 98 91
0.58893 0.97287 0.418785 111 85 79
0.58885 0.96789 0.410043 179 164 161
0.53908 0.94717 0.268142 195 185 180
0.54083 0.95218 0.257571 72 46 38
0.54162 0.94375 0.245892 155 139 133
0.0236899 0.81376 -0.109298 92 63 55
0.02729 0.80944 -0.122698 195 181 178
0.59118 0.95829 0.426982 217 209 206
0.58969 0.96319 0.418979 85 56 48
0.58962 0.95816 0.410403 92 63 55
0.58863 0.96342 0.40208 236 232 230
0.52785 0.93464 0.27094 213 205 203
0.53413 0.93976 0.255053 64 36 31
0.52973 0.93076 0.256245 95 72 66
0.53748 0.93783 0.246777 124 107 100
0.0190898 0.80026 -0.113187 93 65 58
0.01638 0.7934 -0.106145 83 54 46
0.0280801 0.79756 -0.122798 201 189 186
0.59152 0.95358 0.418783 158 140 135
0.58971 0.95155 0.416193 137 114 109
0.59201 0.94712 0.408718 101 72 65
0.58804 0.95326 0.401804 138 116 112
0.58391 0.94722 0.391694 214 206 204
0.58766 0.94833 0.393246 196 184 181
0.53472 0.92929 0.248697 105 84 76
0.55897 0.93054 0.245504 201 193 189
0.58818 0.94167 0.416001 230 225 223
0.59353 0.93852 0.409845 205 195 191
0.5904 0.94153 0.399803 82 51 44
0.58905 0.93877 0.393226 100 72 67
0.59046 0.93885 0.392362 105 77 72
0.52015 0.91621 0.268737 205 194 191
0.53222 0.91116 0.259516 111 90 83
0.53988 0.92048 0.252607 77 52 45
0.53188 0.91831 0.248854 106 86 80
0.55495 0.92031 0.247026 198 188 185
0.02903 0.78219 -0.0845069 70 45 37
0.0198199 0.77428 -0.0959819 74 47 40
0.0236203 0.77877 -0.113535 140 117 113
0.59181 0.93397 0.400172 114 88 81
0.59044 0.92879 0.392023 85 55 48
0.58459 0.93158 0.382625 137 116 112
0.57842 0.92057 0.366128 207 199 196
0.52935 0.90434 0.268883 235 232 230
0.52927 0.89951 0.259406 139 121 115
0.52972 0.90575 0.24944 91 68 61
0.56488 0.91061 0.245214 219 210 209
0.0384599 0.76613 -0.0704439 63 38 29
0.0296103 0.76985 -0.0847339 67 41 33
0.01988 0.76202 -0.0959109 68 43 36
0.0218302 0.76565 -0.115926 147 127 123
0.0965101 0.73623 -0.613303 112 81 78
0.0972902 0.74325 -0.622975 207 196 195
0.5933 0.92388 0.399571 208 197 195
0.58865 0.91742 0.387969 147 127 122
0.58917 0.91773 0.388897 154 136 130
0.58419 0.91809 0.373581 86 59 52
0.58815 0.92218 0.38255 77 49 41
0.58676 0.91227 0.380819 118 95 90
0.58139 0.91119 0.365718 79 52 43
0.57366 0.9132 0.357825 194 184 182
0.0220601 0.75556 -0.0695029 66 40 33
0.01992 0.75144 -0.0961539 72 46 38
0.0203501 0.74594 -0.105285 84 55 48
0.0240199 0.75431 -0.11457 144 123 118
0.02239 0.75336 -0.115905 159 141 136
0.0299999 0.74769 -0.126478 233 229 227
0.1024 0.72526 -0.612078 217 206 203
0.589 0.90715 0.387885 237 233 232
0.58375 0.90505 0.373003 115 92 85
0.5821 0.90078 0.366266 92 63 56
0.57019 0.89725 0.351972 81 54 44
0.56436 0.89554 0.336619 206 200 195
0.52663 0.88694 0.259116 169 156 151
0.0179202 0.74683 -0.0251939 231 226 224
0.0348803 0.74861 -0.0707799 68 42 32
0.02201 0.74581 -0.0867789 67 42 33
0.0180499 0.7385 -0.0983609 76 48 40
0.0190002 0.73307 -0.107167 114 88 82
0.09578 0.72128 -0.591762 156 137 134
0.10195 0.71806 -0.602417 144 121 118
0.58692 0.89656 0.375611 237 233 231
0.58679 0.89211 0.368548 230 225 221
0.58116 0.89601 0.35872 79 49 40
0.57402 0.88801 0.352302 81 52 44
0.5608 0.88262 0.335276 98 74 65
0.52335 0.87501 0.259171 219 212 209
0.0243799 0.73625 -0.0277109 88 60 53
0.0212499 0.72585 -0.0496469 84 59 50
0.02131 0.73354 -0.0700809 72 47 39
0.0243303 0.73467 -0.0871779 70 44 36
0.02833 0.72948 -0.0778289 72 47 38
0.0210501 0.72748 -0.0983369 86 57 49
0.0276701 0.72558 -0.117074 237 233 231
0.0982601 0.72898 -0.266709 235 230 228
0.10844 0.70143 -0.593366 195 181 179
0.10095 0.71089 -0.593394 112 83 81
0.10703 0.70751 -0.603035 232 226 225
0.57906 0.88465 0.359882 193 180 176
0.57978 0.87969 0.353343 140 118 113
0.57266 0.88187 0.343722 72 42 34
0.56789 0.87504 0.333737 76 48 40
0.56362 0.87873 0.325496 120 97 91
0.57383 0.87177 0.289984 173 158 153
0.0386602 0.72837 0.021836 170 153 150
0.0337903 0.72016 -0.0142269 70 44 34
0.0254199 0.71521 -0.0477049 60 36 25
0.0250403 0.71417 -0.0462169 59 34 23
0.0249702 0.72235 -0.0693589 76 52 42
0.0270401 0.71722 -0.075871 68 45 35
0.0285203 0.71202 -0.0858239 75 50 40
0.02729 0.719 -0.106761 153 134 127
0.0805303 0.71891 -0.225995 205 191 187
0.0745103 0.7098 -0.241303 111 76 69
0.0800802 0.7114 -0.252893 111 78 72
0.0898501 0.71987 -0.261901 178 160 156
0.0948302 0.72154 -0.280367 188 170 166
0.10485 0.71744 -0.31574 167 145 141
0.10814 0.69421 -0.583931 130 103 99
0.58391 0.87535 0.360411 227 221 219
0.58259 0.8703 0.352813 207 197 193
0.57783 0.87353 0.344388 105 80 73
0.57469 0.86714 0.333217 83 54 47
0.56593 0.86921 0.325086 77 50 42
0.57666 0.86403 0.2987 66 37 29
0.54669 0.86067 0.290088 138 122 117
0.53916 0.85494 0.282197 178 166 161
0.5416 0.85148 0.272954 159 143 137
0.54942 0.85683 0.281017 142 126 120
0.0445301 0.72341 0.0327091 238 234 233
0.0489699 0.71931 0.0235881 183 169 166
0.0442301 0.71404 0.0163851 190 177 175
0.03818 0.71303 -0.00279393 117 95 90
0.0236503 0.71091 -0.0585399 56 35 24
0.0267202 0.71137 -0.066208 59 37 28
0.0324399 0.707 -0.0750239 62 39 30
0.02904 0.70591 -0.0964989 103 76 66
0.0330102 0.70792 -0.106168 196 183 179
0.0513102 0.69951 -0.145426 210 199 194
0.0608202 0.70594 -0.160484 208 197 192
0.06029 0.70586 -0.160096 210 200 196
0.0672199 0.7013 -0.168703 111 77 68
0.0639903 0.71055 -0.174275 216 207 203
0.0637499 0.71169 -0.171026 229 223 220
0.0738799 0.70144 -0.220663 94 56 47
0.0832702 0.70066 -0.252007 121 87 82
0.10434 0.70832 -0.329348 88 52 45
0.10884 0.70138 -0.352362 114 85 79
0.10716 0.69467 -0.365585 100 65 60
0.10752 0.68095 -0.566628 103 74 70
0.1077 0.68736 -0.576019 106 73 71
0.1129 0.6834 -0.585759 219 211 209
0.58089 0.86462 0.34402 183 170 164
0.57961 0.85877 0.334308 88 61 54
0.57348 0.86084 0.325487 63 37 30
0.57442 0.85914 0.315842 64 38 29
0.57079 0.85496 0.301617 74 45 37
0.56596 0.84948 0.293234 99 72 61
0.54417 0.84621 0.28155 87 55 43
0.0359403 0.7061 0.00500206 236 233 231
0.0164501 0.69102 -0.0609699 54 31 21
0.0263001 0.6989 -0.0670979 53 32 22
0.0255601 0.69192 -0.0813939 67 43 33
0.0305702 0.68781 -0.0903909 88 59 49
0.0294901 0.69381 -0.0998729 120 94 86
0.0208799 0.69673 -0.0910509 75 49 39
0.0440599 0.69579 -0.131798 201 189 185
0.0523001 0.69361 -0.134986 138 108 101
0.0521099 0.69322 -0.134407 136 106 98
0.0552503 0.6887 -0.145868 103 67 58
0.05503 0.68841 -0.145438 103 66 57
0.05118 0.69931 -0.144754 208 197 193
0.0540001 0.69448 -0.156486 117 87 79
0.0537101 0.69434 -0.156032 118 88 80
0.0540401 0.69452 -0.15677 120 90 82
0.0678803 0.70104 -0.168189 109 73 65
0.0670601 0.689 -0.168726 99 64 56
0.0705902 0.68992 -0.171625 109 76 69
0.0853201 0.6927 -0.177033 184 167 162
0.0689899 0.69665 -0.185734 99 60 52
0.07014 0.69405 -0.186197 107 71 63
0.0707699 0.696 -0.181468 99 62 53
0.0859801 0.69236 -0.193147 189 175 171
0.0844699 0.69728 -0.234203 174 152 147
0.0860502 0.69237 -0.250787 226 218 215
0.10478 0.69527 -0.314597 151 128 125
0.11694 0.68994 -0.332159 209 198 195
0.11286 0.69714 -0.343224 87 51 44
0.1052 0.6878 -0.359909 98 61 55
0.10697 0.68259 -0.370442 106 70 65
0.12506 0.68897 -0.38434 91 53 47
0.12582 0.68754 -0.414123 169 149 145
0.12231 0.68533 -0.429941 233 228 225
0.12282 0.68492 -0.4304 231 225 222
0.1229 0.68474 -0.430469 230 224 221
0.11347 0.67104 -0.566043 149 126 122
0.11316 0.67729 -0.575732 188 173 170
0.3414 0.68048 -1.06819 176 157 153
0.34842 0.68974 -1.07433 148 124 121
0.58534 0.8496 0.352089 166 151 145
0.58295 0.85496 0.343651 141 120 114
0.58227 0.84963 0.33467 86 54 46
0.57747 0.85291 0.325025 70 42 33
0.57521 0.84811 0.314642 129 108 102
0.56904 0.8436 0.302282 201 192 189
0.55818 0.84155 0.286611 139 119 111
0.53596 0.83667 0.275204 89 59 48
0.54889 0.83658 0.282899 161 144 136
0.0282103 0.67853 -0.0677189 66 43 33
0.03324 0.68267 -0.0804909 73 48 39
0.0372202 0.67812 -0.0900609 86 58 49
0.04519 0.68831 -0.109401 206 194 190
0.05187 0.68683 -0.126039 130 99 91
0.0501601 0.68625 -0.129074 122 90 82
0.05533 0.6822 -0.136182 91 56 47
0.0552303 0.68228 -0.135251 92 57 48
0.0594102 0.678 -0.146504 104 70 63
0.05994 0.67793 -0.145162 104 71 63
0.0674302 0.68235 -0.162932 129 102 96
0.0608703 0.68517 -0.155301 94 59 50
0.10752 0.68276 -0.350531 193 178 176
0.10992 0.67783 -0.360647 220 210 207
0.11242 0.67268 -0.370677 233 228 226
0.11816 0.67477 -0.389086 98 61 57
0.12234 0.6812 -0.397793 83 45 38
0.11861 0.67276 -0.413528 93 57 50
0.11786 0.67232 -0.413003 94 58 51
0.12142 0.679 -0.424304 122 92 87
0.11913 0.67224 -0.429965 93 57 51
0.12348 0.6786 -0.440372 206 195 192
0.12414 0.67203 -0.451317 180 163 159
0.12561 0.66612 -0.461562 160 140 136
0.1133 0.66426 -0.556916 112 84 79
0.11304 0.65729 -0.547701 91 60 55
0.11906 0.66093 -0.566962 236 232 230
0.30455 0.66127 -1.03018 195 185 184
0.30613 0.66421 -1.02748 218 211 210
0.58696 0.83983 0.352956 232 227 224
0.58404 0.84486 0.344056 114 84 76
0.58369 0.84358 0.342367 130 103 95
0.58039 0.83906 0.334745 182 167 162
0.0303999 0.66819 -0.0636579 67 42 33
0.0347201 0.67201 -0.0767889 67 43 34
0.04587 0.66903 -0.105901 83 51 41
0.0406901 0.67562 -0.0987259 96 66 56
0.055 0.67621 -0.127793 84 49 40
0.05819 0.67094 -0.137563 133 104 99
0.0643703 0.66768 -0.14643 235 230 226
0.0642802 0.66719 -0.146369 237 232 229
0.06624 0.67468 -0.154264 199 186 181
0.0664803 0.67496 -0.154988 199 186 181
0.11313 0.66765 -0.380393 234 228 226
0.11127 0.66258 -0.395296 190 174 173
0.1235 0.66962 -0.397973 141 114 110
0.12041 0.66083 -0.411693 237 231 229
0.1201 0.66101 -0.412218 234 228 226
0.12019 0.65941 -0.435686 141 115 110
0.11863 0.66605 -0.424741 121 90 85
0.11902 0.65929 -0.432826 158 135 131
0.12234 0.66554 -0.443738 85 48 41
0.1236 0.65899 -0.454618 88 51 45
0.12594 0.65997 -0.472259 135 110 105
0.12385 0.65353 -0.463742 91 57 49
0.12593 0.65983 -0.47198 131 105 100
0.12394 0.65333 -0.482658 108 78 73
0.11764 0.65254 -0.50111 209 199 196
0.10921 0.65301 -0.527085 120 93 88
0.11453 0.64847 -0.534585 87 56 48
0.12096 0.64787 -0.546831 171 153 149
0.12167 0.64732 -0.545291 168 150 146
0.12005 0.65444 -0.556761 203 192 189
0.30195 0.65473 -1.02024 234 230 228
0.32611 0.655 -1.04557 206 194 192
0.32726 0.65357 -1.04546 219 210 207
0.32976 0.66364 -1.05389 168 148 145
0.52623 0.81367 0.262056 203 194 189
-0.0751799 0.63796 -0.047857 225 218 215
0.0252301 0.65929 -0.0578449 72 47 38
0.0573303 0.65989 -0.124113 216 207 203
0.12098 0.65224 -0.44701 178 160 155
0.12056 0.65285 -0.443509 187 171 167
0.12618 0.64808 -0.454455 203 191 188
0.12596 0.64826 -0.473117 89 55 47
0.12802 0.64278 -0.4635 215 205 202
0.12836 0.64304 -0.481579 93 60 53
0.12244 0.64699 -0.493351 97 65 59
0.12002 0.64637 -0.509966 141 118 113
0.11853 0.63947 -0.522008 89 57 49
0.12363 0.63582 -0.531433 153 133 127
0.29411 0.64347 -1.01811 220 212 211
0.3199 0.647 -1.03782 196 183 181
0.32082 0.64376 -1.03947 235 230 228
-0.0831698 0.61894 -0.0354749 206 195 192
0.0224301 0.64462 -0.0571949 74 48 39
0.0333802 0.64422 -0.0883909 67 41 31
0.18016 0.67824 -0.0980889 223 217 214
0.12234 0.62925 -0.523009 82 50 43
0.12456 0.62402 -0.53245 93 64 57
0.12504 0.62974 -0.541062 226 219 216
0.12594 0.62405 -0.551593 232 227 225
0.10636 0.58056 -0.944295 193 181 178
0.31631 0.63465 -1.03193 238 233 231
0.16939 0.67063 -0.0868979 150 126 123
0.15306 0.66831 -0.0864349 218 209 207
0.18134 0.66675 -0.0966539 102 68 63
0.18801 0.67378 -0.10537 197 184 182
0.18984 0.67202 -0.104472 163 143 140
0.12929 0.6251 -0.491742 219 213 210
0.12183 0.61741 -0.503658 229 224 221
0.12357 0.61179 -0.513527 214 206 203
0.12346 0.61786 -0.52361 83 52 45
0.12761 0.6128 -0.533117 85 53 47
0.12614 0.61806 -0.542855 100 73 68
0.12807 0.61286 -0.552561 108 82 77
0.10691 0.57179 -0.913065 170 153 150
0.10615 0.57723 -0.919006 228 222 221
0.10957 0.57386 -0.932284 125 97 92
0.11478 0.57111 -0.945637 133 107 102
0.11323 0.5787 -0.955556 223 216 214
0.28902 0.61044 -0.998637 102 72 65
0.29673 0.61873 -1.00438 102 70 66
0.30634 0.61421 -1.01165 236 231 230
0.17549 0.65889 -0.0894979 156 131 126
0.18127 0.65454 -0.0977789 186 171 168
0.19474 0.66459 -0.102427 106 73 69
0.19453 0.65916 -0.113229 192 178 176
0.1947 0.66096 -0.112882 181 164 162
0.12361 0.60564 -0.524243 204 194 192
0.12611 0.6004 -0.530584 220 212 209
0.1266 0.60653 -0.543653 86 55 48
0.12821 0.60106 -0.553346 83 52 44
0.1297 0.6074 -0.562234 116 92 86
0.13005 0.60718 -0.564283 132 111 106
0.13155 0.60104 -0.5746 143 123 119
0.13304 0.59457 -0.585653 134 114 110
0.1333 0.59477 -0.585152 132 112 108
0.1158 0.56371 -0.878129 134 108 104
0.11574 0.5631 -0.911733 134 108 105
0.1089 0.56618 -0.90389 130 105 101
0.11045 0.56767 -0.923346 120 90 85
0.11823 0.56453 -0.933323 196 180 177
-0.0113099 0.60413 -0.0493089 90 59 49
0.16589 0.64448 -0.0879119 131 100 97
0.17528 0.64663 -0.09066 204 191 190
0.19711 0.65403 -0.102843 220 211 210
0.12997 0.5961 -0.540453 204 193 189
0.12939 0.58941 -0.551891 201 189 187
0.12948 0.5947 -0.564094 79 48 42
0.12906 0.58229 -0.564098 201 190 187
0.1307 0.58846 -0.574742 77 47 41
0.13234 0.582 -0.585576 78 49 43
0.13424 0.58827 -0.596416 136 115 111
0.11305 0.55804 -0.821067 185 172 169
0.11461 0.55237 -0.854399 117 87 82
0.11509 0.5523 -0.874835 164 144 140
0.11671 0.55106 -0.884679 214 204 201
0.11629 0.5574 -0.891293 161 139 135
0.25493 0.57993 -0.953816 236 232 230
0.27017 0.58515 -0.968564 102 75 71
0.28447 0.58917 -0.98585 167 146 143
0.16775 0.63531 -0.08705 227 219 216
0.13142 0.57599 -0.574251 208 198 196
0.13296 0.57007 -0.584525 200 189 187
0.13324 0.57842 -0.591582 80 51 45
0.13638 0.57039 -0.607136 77 48 42
0.13582 0.57591 -0.617995 119 96 92
0.11142 0.54871 -0.785587 199 188 185
0.11347 0.54409 -0.804715 112 82 78
0.11618 0.54563 -0.822936 142 117 113
0.11694 0.54723 -0.843144 168 146 143
0.11877 0.54183 -0.852689 236 231 229
0.1173 0.54734 -0.862987 200 188 186
0.25224 0.57322 -0.944207 228 222 220
0.26069 0.56968 -0.951776 101 72 68
0.26605 0.5772 -0.959447 106 78 74
0.27341 0.57366 -0.968252 165 146 142
0.27793 0.58089 -0.976814 160 139 135
0.13666 0.5652 -0.593203 185 172 169
0.13915 0.56054 -0.599243 178 164 160
0.14356 0.55705 -0.610063 113 88 84
0.14249 0.56466 -0.618855 83 56 49
0.1403 0.55298 -0.680175 118 94 88
0.11997 0.54621 -0.74654 179 164 161
0.1253 0.54258 -0.753312 97 71 66
0.12613 0.54553 -0.781804 90 61 56
0.12609 0.53681 -0.791418 199 185 182
0.1248 0.53619 -0.811328 238 234 233
0.11756 0.53994 -0.814278 178 161 158
0.11908 0.54148 -0.834046 220 211 209
0.25029 0.55453 -0.936255 94 62 57
0.24369 0.56346 -0.938966 198 187 184
0.25608 0.56201 -0.94388 91 59 54
0.26523 0.55758 -0.951858 198 185 182
0.26993 0.56588 -0.959955 177 160 156
0.15137 0.55488 -0.618659 97 67 62
0.16226 0.54698 -0.634759 156 137 132
0.13021 0.53864 -0.742386 83 56 50
0.1341 0.53304 -0.754254 151 131 126
0.13264 0.5305 -0.777872 236 232 229
0.24544 0.54657 -0.928258 109 80 75
0.26097 0.5491 -0.943545 225 217 214
0.16569 0.5404 -0.623762 107 79 75
0.17285 0.53885 -0.634381 115 88 83
0.18072 0.53845 -0.644069 217 208 206
0.17396 0.54416 -0.6588 224 217 214
0.16553 0.53447 -0.681022 235 231 230
0.16334 0.52994 -0.690304 239 235 234
0.14733 0.52418 -0.715323 193 180 177
0.1563 0.52638 -0.713725 204 193 190
0.15952 0.52846 -0.708717 203 191 188
0.13949 0.53001 -0.74358 101 71 65
0.14528 0.52497 -0.748111 97 67 62
0.15331 0.52042 -0.759541 105 75 70
0.13894 0.52131 -0.779834 162 144 140
0.14502 0.52057 -0.798429 214 206 203
0.1539 0.51955 -0.808725 193 182 179
0.17504 0.52061 -0.824343 190 178 174
0.17946 0.52746 -0.832778 225 220 218
0.18131 0.5216 -0.843866 136 115 111
0.21716 0.52743 -0.89312 113 84 81
0.22686 0.52436 -0.920419 175 157 152
0.25047 0.53123 -0.929181 238 234 231
0.23871 0.5384 -0.930973 158 136 132
0.17471 0.52665 -0.622946 221 213 210
0.18044 0.52748 -0.635489 133 105 102
0.17607 0.53617 -0.630985 99 68 63
0.19385 0.53224 -0.640422 218 208 206
0.16482 0.52385 -0.725291 210 198 196
0.1445 0.51093 -0.752802 180 170 166
0.1452 0.51203 -0.750484 213 203 201
0.16117 0.51067 -0.76083 229 222 220
0.14993 0.5131 -0.778638 111 83 79
0.14987 0.5029 -0.79462 169 151 147
0.15565 0.51232 -0.798905 100 71 65
0.16193 0.50775 -0.81077 94 64 57
0.17857 0.50845 -0.825345 85 57 50
0.18269 0.51622 -0.831943 95 69 63
0.1882 0.51191 -0.841422 79 50 42
0.18921 0.51957 -0.853206 127 104 100
0.19507 0.51326 -0.862265 121 97 92
0.20037 0.52029 -0.872108 176 163 159
0.20103 0.51394 -0.893548 105 75 69
0.21815 0.52139 -0.908315 131 102 98
0.23764 0.52735 -0.913796 205 193 190
0.16378 0.50635 -0.775127 226 219 217
0.16096 0.50168 -0.797235 187 173 169
0.18611 0.50477 -0.832387 96 69 63
0.18979 0.49952 -0.843396 145 124 119
0.19157 0.50651 -0.852689 85 56 49
0.19626 0.50094 -0.861998 138 116 111
0.19811 0.50593 -0.873176 94 65 59
0.19162 0.50094 -0.888934 87 58 50
0.20316 0.50744 -0.89444 115 86 80
0.21272 0.50778 -0.907684 213 203 199
0.00415006 0.52015 0.00185505 235 227 225
0.00694004 0.51837 -0.039441 77 48 38
0.0379802 0.52868 -0.066476 71 44 35
0.18921 0.49273 -0.834887 233 228 225
0.19228 0.49284 -0.85433 226 219 217
0.19022 0.48537 -0.866703 236 231 230
0.19751 0.49334 -0.87224 213 204 202
0.0050303 0.50759 0.00186105 235 226 225
0.01535 0.50906 -0.039779 79 52 42
-0.0465797 0.49703 0.120782 150 122 118
-0.0395897 0.49092 0.0886941 222 208 207
-0.0361598 0.48927 0.0896031 222 208 206
0.0046002 0.49442 -0.021291 156 132 127
-0.0665601 0.47744 0.132762 162 135 131
-0.0560101 0.47587 0.119853 96 62 55
-0.04333 0.47984 0.109989 151 122 117
-0.0385598 0.48562 0.0980801 238 231 229
-0.0386198 0.47612 0.0903251 209 187 184
-0.0335201 0.48259 0.080169 223 208 206
-0.0174497 0.47995 0.00563105 232 220 217
-0.000860065 0.47616 -0.012796 224 211 207
0.00575987 0.48252 -0.020516 147 121 114
0.00842014 0.48643 -0.0312629 90 56 48
0.0175001 0.47951 -0.032138 89 58 49
0.0246903 0.48243 -0.067826 74 45 37
0.0238902 0.47539 -0.079821 71 42 33
0.0331103 0.47187 -0.130509 200 178 174
-0.0623997 0.45939 0.140043 207 187 185
-0.06227 0.46622 0.150675 212 193 191
-0.0642699 0.46419 0.121336 111 78 72
-0.06123 0.46166 0.119393 125 92 88
-0.0486701 0.46989 0.109653 91 58 53
-0.04467 0.46212 0.098867 99 65 59
-0.0461701 0.4609 0.100278 90 55 49
-0.0442499 0.47196 0.0996441 172 147 142
-0.0365399 0.46668 0.087416 191 168 164
-0.00121006 0.46357 -0.012582 194 171 166
0.0119902 0.4715 -0.022002 108 76 68
0.0126301 0.46499 -0.031908 91 60 51
0.0225102 0.47412 -0.041085 83 53 44
0.0238701 0.46844 -0.053296 73 44 36
0.0250103 0.47616 -0.057891 77 48 39
0.02166 0.46815 -0.071395 71 42 33
0.0215103 0.46855 -0.070698 71 42 33
0.0187003 0.46738 -0.092593 93 63 56
0.02024 0.46179 -0.102348 187 165 162
0.0207402 0.46929 -0.111206 165 141 137
0.0172102 0.46105 -0.123743 193 167 165
0.0362903 0.46086 -0.131086 205 183 181
-0.0623601 0.45233 0.148142 219 202 200
-0.05348 0.45632 0.153002 214 195 193
-0.0572399 0.45498 0.130515 210 189 186
-0.0602601 0.44802 0.133688 215 196 194
-0.0584801 0.44821 0.14002 213 194 192
-0.05211 0.45026 0.120261 203 181 178
-0.0614298 0.4533 0.12588 213 196 193
-0.0495799 0.45709 0.110814 122 90 85
-0.0565298 0.45645 0.111879 128 97 92
-0.0463699 0.44822 0.100231 160 131 127
-0.0414298 0.45462 0.0898101 101 66 60
-0.0345801 0.45989 0.078618 182 157 153
-0.0310701 0.45116 0.0671851 175 152 148
5.02169e-05 0.45364 -0.027894 113 79 70
0.01321 0.45955 -0.022305 102 69 61
0.0138899 0.45261 -0.029241 92 60 52
0.0175201 0.45421 -0.044181 75 45 36
0.0210101 0.45199 -0.049309 70 41 32
0.0241801 0.45675 -0.070946 82 50 41
0.0258099 0.45103 -0.081204 144 113 106
0.0239202 0.45653 -0.091826 171 146 142
0.0221602 0.45623 -0.092177 186 165 161
0.0261399 0.45149 -0.101964 215 200 198
0.0218903 0.45629 -0.112873 194 168 165
0.0403201 0.45258 -0.120296 217 204 203
-0.05491 0.44251 0.140637 222 206 204
-0.0542301 0.4348 0.1211 213 194 192
-0.0549801 0.44201 0.12651 213 194 192
-0.0493701 0.44207 0.111077 210 191 189
-0.04087 0.44754 0.112244 208 188 185
-0.0519398 0.44022 0.11293 210 191 188
-0.04783 0.44589 0.101122 183 158 155
-0.0411299 0.44071 0.091121 178 150 147
-0.0384401 0.44686 0.0807251 104 66 62
-0.0377997 0.44593 0.0783461 104 67 62
-0.0346301 0.44109 0.0706341 100 62 57
-0.0196498 0.43723 0.038574 195 172 168
-0.01664 0.43939 0.029889 195 167 164
0.00120988 0.44176 -0.027364 100 64 57
0.0200202 0.44739 -0.037516 82 51 43
0.0250899 0.45112 -0.059958 79 49 40
0.0268198 0.44545 -0.070011 100 66 58
0.0242001 0.43725 -0.082272 182 157 152
0.0240299 0.44392 -0.092317 193 170 166
0.0331499 0.44273 -0.094616 218 204 203
-0.0397199 0.43194 0.108979 205 181 177
-0.0424098 0.43458 0.100031 205 182 179
-0.03876 0.42948 0.108166 239 230 228
-0.0376299 0.42915 0.091393 206 184 182
-0.0411399 0.42838 0.092665 200 173 170
-0.0356501 0.42943 0.090022 203 178 175
-0.0382098 0.43416 0.079588 166 135 132
-0.0334299 0.42904 0.070523 162 130 126
-0.0272101 0.42875 0.050353 96 59 54
-0.0230497 0.42341 0.0384031 105 70 65
-0.0124801 0.42523 0.00750802 180 154 150
0.00462022 0.43496 -0.0377219 84 51 43
0.0211803 0.43665 -0.057888 78 49 40
0.01708 0.42721 -0.051507 81 51 43
0.0266701 0.43006 -0.070982 120 87 80
0.0309803 0.43477 -0.08678 187 160 156
0.0414602 0.42943 -0.093477 199 171 167
-0.0395201 0.42265 0.0997451 230 219 218
-0.0343297 0.42469 0.10358 215 198 196
-0.0364297 0.41669 0.091439 216 198 197
-0.0314 0.41793 0.089788 202 176 174
-0.0371598 0.41654 0.0917021 216 198 197
-0.0367497 0.42238 0.081115 203 178 175
-0.0375999 0.42208 0.080024 200 173 170
-0.0318397 0.41722 0.0705061 199 173 169
-0.0306099 0.42131 0.055055 129 93 89
-0.0277499 0.41128 0.059357 186 160 156
-0.0264801 0.41689 0.0482961 106 69 65
-0.0175298 0.41034 0.014951 92 59 52
0.0126602 0.4208 -0.041777 85 54 45
0.0292999 0.42285 -0.059542 87 55 46
0.0240599 0.42517 -0.0554 79 49 40
0.0263101 0.41588 -0.07127 141 109 103
0.0338799 0.421 -0.086859 192 163 158
-0.0335001 0.41059 0.0808301 216 198 197
-0.0314501 0.41085 0.079532 208 185 183
-0.0296601 0.40493 0.0699651 196 166 163
-0.0274399 0.39823 0.058509 194 164 161
-0.0240401 0.40497 0.047912 173 144 139
-0.0191301 0.39924 0.034751 155 124 119
-0.01312 0.39709 0.00999604 77 46 37
-0.00498995 0.39975 -0.00402696 111 80 72
0.0295903 0.40901 -0.059173 93 59 51
0.0319802 0.41568 -0.047976 80 49 41
-0.01834 0.39361 0.046648 191 162 158
-0.0144399 0.38872 0.035738 181 151 146
-0.0167697 0.38973 0.018052 112 79 72
-0.00593981 0.39126 0.00231004 74 45 36
0.0310299 0.40194 -0.024911 86 56 47
0.02516 0.39128 -0.04135 83 54 45
0.0259801 0.40344 -0.040327 82 53 44
0.0313703 0.38989 -0.067463 149 115 107
0.0326501 0.39648 -0.080322 181 151 144
0.0324599 0.38866 -0.089217 173 136 131
-0.0219401 0.3786 0.020681 170 137 131
-0.0107697 0.37801 0.00889603 129 94 86
0.02866 0.3877 -0.027335 86 57 48
0.0258299 0.3785 -0.041904 82 53 45
0.035 0.38576 -0.048899 92 58 50
0.0327703 0.38368 -0.056607 104 70 62
0.03147 0.37688 -0.068002 151 113 107
-0.0117601 0.36911 0.013705 166 130 124
0.00235 0.36683 -0.014555 74 46 36
0.0334002 0.37728 -0.024527 85 56 47
0.0312001 0.36814 -0.037758 86 57 48
0.0351902 0.37317 -0.047074 91 58 50
0.03152 0.36836 -0.077414 172 137 131
-0.00430998 0.35537 0.013977 168 129 122
1.49012e-07 0.35891 -0.00676297 89 56 47
0.00290027 0.35449 -0.016696 75 46 36
0.0285999 0.35368 -0.040954 86 56 47
0.0376603 0.35524 -0.055303 140 103 94
0.0336501 0.36173 -0.050011 107 73 64
0.0276901 0.36154 -0.067781 153 120 113
0.0325901 0.35625 -0.076599 168 136 130
0.00341001 0.34791 0.022769 169 130 123
-0.00288996 0.34661 -0.00730796 116 79 68
-0.00166974 0.33514 -0.00908896 113 76 66
0.00483003 0.34239 -0.016936 83 52 43
0.0321099 0.34827 -0.050836 105 71 62
0.0383998 0.34275 -0.05516 140 103 94
-0.00563988 0.32517 -0.00409398 138 98 89
0.00475994 0.32936 -0.018339 87 56 47
0.02764 0.34051 -0.041457 86 57 48
0.0429799 0.27863 -0.010154 82 55 46
0.0467903 0.27412 -0.00821297 69 44 34
0.02517 0.25086 -0.017152 61 34 24
0.0285102 0.23055 0.00984803 86 54 45
0.0295202 0.21652 -0.016698 64 35 24
0.0357901 0.22047 0.011274 96 66 57
0.0310299 0.21117 -0.00535199 68 37 28
0.03678 0.20752 0.011304 88 58 49
0.0323502 0.20296 -0.00831099 69 39 28
0.0304901 0.20044 -0.027827 70 39 29
0.0357601 0.19371 -0.019156 75 45 35
-0.0212997 0.16944 0.029233 161 119 110
0.0123903 0.18375 0.020434 104 70 62
0.0186502 0.17963 0.010438 81 49 40
0.0270702 0.18784 -0.00667599 64 35 25
0.02483 0.18692 0.00262901 72 41 32
0.0314099 0.18176 -0.018102 73 44 34
0.0357501 0.1903 -0.02475 78 47 36
0.0532199 0.19029 -0.047649 160 117 110
-0.00207982 0.16527 0.038106 155 114 105
0.0126802 0.17043 0.020736 113 77 71
0.0186302 0.16648 0.011732 81 49 40
0.01745 0.16611 0.011446 81 49 40
0.0231701 0.17301 0.00157102 72 42 32
0.0206 0.16755 -0.00981998 68 39 29
0.0474002 0.17785 -0.047544 159 117 109
0.0576202 0.17734 -0.053649 149 105 101
0.00957027 0.15688 0.063969 185 159 154
0.0127203 0.16544 0.055433 187 160 156
0.00686994 0.15605 0.041519 177 147 140
0.01148 0.15634 0.020034 103 68 62
0.0173599 0.15256 0.011227 82 49 41
0.0196702 0.15239 -0.010482 68 39 28
0.0270902 0.16128 -0.019455 75 46 36
0.03749 0.16251 -0.04416 134 96 89
0.0471799 0.15906 -0.052194 159 117 109
0.0164401 0.15423 0.053981 174 145 140
0.0110399 0.14401 0.042654 173 143 138
0.0156399 0.14475 0.02167 101 68 60
0.01745 0.14434 -0.000672983 70 40 30
0.0242301 0.14059 -0.00982398 73 45 34
0.02906 0.14006 -0.030712 89 57 47
0.02906 0.14006 -0.030712 89 57 47
0.0449001 0.15149 -0.041867 147 107 101
0.0211998 0.15301 0.173449 151 120 117
0.02517 0.15695 0.154153 99 63 59
0.0182802 0.14539 0.137071 140 110 106
0.0154902 0.13768 0.054993 184 158 151
0.0158903 0.13244 0.022067 98 66 58
0.0236503 0.13976 0.011551 79 46 38
0.0201499 0.13175 -0.000555981 67 38 27
0.0185801 0.12437 -0.011995 67 40 29
0.0147602 0.12742 -0.025318 74 45 34
0.0306503 0.13431 -0.0407 137 100 92
0.03151 0.12368 -0.055942 173 139 134
0.02619 0.12394 -0.055762 175 144 140
0.0671999 0.15999 0.20494 149 107 102
0.0285203 0.14315 0.172618 172 142 138
0.0217401 0.14001 0.14876 103 68 64
0.0223099 0.14019 0.150769 110 76 72
0.0250699 0.13488 0.138736 95 63 57
0.02589 0.13523 0.140774 100 68 63
0.0239302 0.14046 0.127247 128 97 92
0.0219599 0.13315 0.110933 148 121 115
0.0232503 0.12721 0.100636 108 79 73
0.0291301 0.12847 0.012554 73 43 33
0.0255601 0.12034 0.000197019 65 38 27
0.0126702 0.1133 -0.025948 80 49 40
0.0183703 0.11318 -0.048453 173 142 137
0.02093 0.11442 -0.047375 173 142 137
0.03111 0.13077 0.171748 173 143 139
0.03995 0.14012 0.184491 175 143 140
0.0249402 0.13474 0.160253 168 139 135
0.0323702 0.13171 0.152319 165 137 133
0.03326 0.13211 0.152827 165 138 133
0.03152 0.12453 0.140454 160 134 128
0.0258099 0.12824 0.127489 91 58 52
0.0294701 0.12223 0.115155 87 56 49
0.0303399 0.12321 0.111927 84 54 47
0.0250103 0.12087 0.090223 80 52 44
0.0242802 0.11186 0.076715 67 45 36
0.0183898 0.11139 0.054554 114 91 82
0.01566 0.10407 0.049869 117 94 85
0.02061 0.10691 0.022227 78 50 40
0.01952 0.10465 -0.00232898 64 39 27
0.0277902 0.10644 -0.021534 85 54 44
0.0268599 0.10578 -0.021841 85 54 44
0.0249902 0.10527 -0.039377 165 134 128
0.0258199 0.10569 -0.038786 163 133 127
0.0190302 0.0999801 -0.048214 175 144 139
0.0277301 0.12243 0.159452 174 145 140
0.04164 0.12276 0.153468 145 107 99
0.06099 0.1228 0.156607 172 143 135
0.0378701 0.12365 0.138449 164 138 131
0.0487 0.12546 0.146189 170 143 136
0.0306999 0.117 0.128067 154 126 119
0.0379302 0.11146 0.115039 168 147 139
0.02976 0.11569 0.100869 75 47 39
0.0303999 0.10868 0.090131 71 46 35
0.0270802 0.0998602 0.077484 68 45 32
0.02028 0.10483 0.065476 65 44 34
0.0189902 0.0922101 0.050179 70 47 35
0.0204503 0.0924702 0.015587 71 46 35
0.0256902 0.09462 -0.004581 63 38 26
0.0232998 0.0836401 -0.030973 126 91 79
0.0501601 0.11204 0.164096 176 146 138
0.0436799 0.11136 0.14038 173 145 136
0.0440599 0.10791 0.126458 178 155 147
0.03883 0.10336 0.127146 172 145 135
0.0402099 0.0985501 0.115866 172 146 136
0.0333902 0.10332 0.10206 144 120 110
0.0355803 0.0963302 0.091695 150 129 119
0.0207302 0.0815101 0.053145 65 44 31
0.0196501 0.0855901 0.038611 72 49 37
0.0301301 0.0899 0.007107 62 38 26
0.0275198 0.0779502 -0.00420299 61 38 26
0.0268198 0.0729601 -0.042464 147 109 97
0.0405399 0.0879302 0.105548 169 145 132
0.0563499 0.0896101 0.097693 166 145 131
0.03328 0.08359 0.070298 119 98 85
0.01854 0.06745 0.053181 68 47 33
0.0253903 0.0743501 0.041069 65 46 33
0.02865 0.0700102 0.019558 63 40 30
0.03291 0.0765402 0.00815602 60 38 26
0.0358402 0.0742903 -0.026762 133 99 85
0.0161101 0.0518801 -0.04956 150 113 100
0.0502001 0.0793002 0.085233 178 160 148
0.0152003 0.0541701 0.053683 81 62 44
0.02202 0.0592902 0.040972 56 38 25
0.0344702 0.0686302 0.030432 61 41 29
0.0240199 0.0556703 0.006384 59 37 25
0.0336901 0.0620701 0.00873901 59 36 24
0.0109402 0.0433702 -0.022934 92 65 51
0.00703016 0.0452101 0.064552 130 108 86
0.01362 0.0388401 0.053073 98 81 63
0.0208103 0.0448601 0.041337 53 37 22
0.0338398 0.0474601 0.022236 52 32 19
0.0334002 0.0546801 0.030872 55 35 23
