ply
format ascii 1.0
comment VCGLIB generated
element vertex 1005
property float x
property float y
property float z
property uchar red
property uchar green
property uchar blue
property uchar alpha
element face 0
property list uchar int vertex_indices
end_header
-0.02894005 0.4355901 0.06187104 114 83 77 255 
-0.02888998 0.4355801 0.06173106 113 82 76 255 
-0.03857979 0.4396802 0.07745604 193 180 175 255 
-0.03838 0.4399202 0.07758205 190 176 170 255 
-0.03587994 0.4325101 0.06953503 225 216 213 255 
-0.03561005 0.4323101 0.06948306 225 216 213 255 
-0.03581986 0.4327701 0.06958805 222 213 210 255 
-0.04945979 0.4449601 0.09338306 241 237 235 255 
-0.04663977 0.4375702 0.08540504 250 249 248 255 
-0.0465897 0.4374901 0.08542006 250 249 248 255 
-0.0563601 0.4421102 0.101477 252 251 251 255 
-0.05674013 0.4422202 0.1014291 252 251 251 255 
-0.05716977 0.4429102 0.1014601 252 251 251 255 
-0.05703005 0.4427402 0.1017651 252 251 251 255 
-0.05854973 0.4494401 0.109438 252 252 250 255 
-0.05750975 0.4497602 0.1096881 251 250 249 255 
-0.05750975 0.4496301 0.109958 252 251 249 255 
-0.06904015 0.4523802 0.125245 253 253 252 255 
-0.06933007 0.4526502 0.1255331 254 254 253 255 
-0.06685004 0.4519602 0.1256991 254 254 253 255 
0.01204029 0.3848201 -0.08762897 254 254 254 255 
0.01552024 0.3775902 -0.07674497 248 246 244 255 
0.01871029 0.3843702 -0.06554096 124 96 88 255 
0.01921001 0.3843602 -0.06508896 119 91 82 255 
0.02141014 0.3770201 -0.05386497 70 39 29 255 
0.01433006 0.3904802 -0.02103397 81 53 43 255 
0.01118007 0.3915801 -0.02894696 73 45 35 255 
-0.02553973 0.4104502 0.02392705 129 105 97 255 
-0.008409828 0.4019401 0.00940205 88 57 46 255 
-0.02300009 0.4156401 0.03495003 141 120 114 255 
-0.03480992 0.4247801 0.06197806 240 236 233 255 
-0.02641997 0.4151402 0.05525105 244 241 239 255 
-0.04273972 0.4292501 0.07747005 249 248 247 255 
-0.04388985 0.4299802 0.07743804 250 248 248 255 
-0.04271016 0.4295702 0.07757704 250 248 247 255 
-0.04174981 0.4225701 0.06946103 249 247 246 255 
0.01696029 0.3622502 -0.07766797 251 250 249 255 
0.01978031 0.3700502 -0.06534697 140 116 109 255 
-0.03950009 0.4147402 0.06200103 247 243 242 255 
0.0210301 0.3551302 -0.06572998 168 148 141 255 
0.02069011 0.3464601 -0.07704596 246 243 241 255 
0.02437988 0.3393202 -0.06473497 166 147 139 255 
0.002800137 0.3520101 -0.001801967 178 163 157 255 
0.02540031 0.3298901 -0.07548997 243 237 234 255 
0.01883999 0.3358802 -0.03886497 61 35 24 255 
-0.05707011 0.3774302 0.04699505 230 214 211 255 
0.01964012 0.3189502 -0.07829097 233 220 218 255 
0.02003017 0.3097502 -0.08751696 229 214 210 255 
0.02738014 0.3093702 -0.06832998 224 209 206 255 
0.009480149 0.2990402 -0.08793697 225 207 203 255 
0.01845995 0.3044502 -0.07815397 230 214 211 255 
0.02751032 0.2947001 -0.06829797 223 207 203 255 
0.0308601 0.3032702 -0.05778897 124 97 88 255 
0.0351502 0.3082801 0.03424403 220 196 192 255 
0.02734008 0.3074802 0.03938404 220 197 193 255 
0.006459862 0.2879301 -0.09182297 229 213 210 255 
0.02447 0.2876701 -0.07965698 230 214 211 255 
0.02734008 0.2805701 -0.06823898 224 210 205 255 
0.01488987 0.2886702 -0.03957697 61 35 24 255 
0.00969997 0.3006601 -0.01021597 70 42 32 255 
0.009430081 0.3029501 0.007785026 187 172 166 255 
0.02646986 0.2893102 0.02157703 221 203 199 255 
0.03193012 0.2949902 0.03370804 225 207 203 255 
-0.008439869 0.2890202 -0.101613 224 205 201 255 
0.01032987 0.2753102 -0.108417 224 205 202 255 
0.00319019 0.2833701 -0.08092698 228 213 210 255 
0.007970005 0.2759402 -0.07458998 227 211 208 255 
0.01457992 0.2763202 -0.03956398 62 36 26 255 
0.02737013 0.2774202 -0.04562697 66 36 26 255 
0.006050259 0.2932302 -0.01969998 54 29 19 255 
0.006570011 0.2930002 -0.01948697 55 31 20 255 
0.01071993 0.2828102 -0.02961697 53 29 19 255 
0.00733009 0.2867701 -0.01019498 63 36 27 255 
0.02206007 0.2836902 0.009807023 146 113 105 255 
0.03372017 0.2797402 0.03519205 204 173 166 255 
0.02858987 0.2785401 0.03279803 216 193 188 255 
0.001229912 0.2727002 -0.100367 232 219 217 255 
0.004210144 0.2654501 -0.108684 224 205 202 255 
-0.003159851 0.2669202 -0.08988098 222 206 202 255 
-0.0009797513 0.2705802 -0.08045498 207 188 183 255 
0.00679031 0.2684602 -0.03033098 58 34 24 255 
0.0126802 0.2786301 -0.0001889671 93 61 52 255 
0.0178 0.2706002 0.009707035 129 97 88 255 
0.02276006 0.2728401 0.02210003 218 203 199 255 
-0.007560104 0.2554802 -0.110489 216 194 190 255 
-0.006059974 0.2621402 -0.100288 225 208 205 255 
-0.005359977 0.2576802 -0.08007497 113 75 67 255 
0.0006600916 0.2595302 -0.07041397 117 81 72 255 
0.002090126 0.2582002 -0.03053098 62 38 28 255 
0.009420067 0.2556201 -0.009600975 66 40 29 255 
0.009520203 0.2650802 -0.0004569805 88 57 47 255 
0.01901022 0.2621402 0.009805025 118 81 72 255 
0.0275003 0.2525501 0.02141804 176 139 130 255 
0.02369991 0.2570502 0.02594602 202 185 180 255 
0.009900242 0.2711601 0.04335704 229 214 210 255 
-0.01461014 0.2447102 -0.110462 216 194 189 255 
-0.01831993 0.2525102 -0.100946 216 194 189 255 
0.006620079 0.2459601 -0.05987998 90 58 48 255 
0.01909986 0.2479101 0.01019302 110 72 63 255 
0.02163997 0.2376802 0.02078503 176 142 134 255 
0.03004995 0.2454702 0.03225303 215 193 187 255 
0.01895013 0.2515801 0.03973705 229 214 209 255 
0.01143995 0.2545902 0.04800603 230 214 210 255 
0.001889855 0.2346301 -0.01637798 67 42 32 255 
0.001470238 0.2416501 -0.004736984 66 38 28 255 
0.01172987 0.2304902 0.00390402 79 47 38 255 
0.01457992 0.2364202 0.03721204 221 201 196 255 
0.004610211 0.2443801 0.04312304 226 207 203 255 
0.02055994 0.2399602 0.04637903 231 215 211 255 
-0.0002597272 0.2271502 -0.005158985 68 41 30 255 
0.01687017 0.2220402 0.01398703 115 82 73 255 
0.01269022 0.2149701 0.002831016 76 46 36 255 
0.02011028 0.2146602 0.02465403 182 151 144 255 
0.01686016 0.2223501 0.03592902 193 162 155 255 
0.00570026 0.2207502 0.03579601 207 182 177 255 
0.01482025 0.2284502 0.04585102 237 225 222 255 
0.006169945 0.2268401 0.04961803 234 220 217 255 
0.01336017 0.2089401 0.01416602 109 77 68 255 
0.01686016 0.2008401 0.02442002 174 143 135 255 
0.01960006 0.2072501 0.03599703 188 155 147 255 
0.003410012 0.2133802 0.04942202 230 215 211 255 
0.01607004 0.1848502 0.02816203 169 135 125 255 
0.01355997 0.1898502 0.135061 195 163 157 255 
0.02072015 0.1969801 0.170849 188 152 145 255 
0.0190703 0.1924802 0.183735 205 178 173 255 
0.01901022 0.1684501 0.03531703 167 129 117 255 
0.02644029 0.1686601 0.129177 200 175 169 255 
0.03059021 0.1755901 0.134994 183 147 139 255 
0.02660003 0.1712102 0.145467 188 155 149 255 
0.02468029 0.1766902 0.141362 205 180 174 255 
0.0203301 0.1746602 0.165013 193 164 158 255 
0.01213995 0.1868201 0.169401 193 161 155 255 
0.0164701 0.1795802 0.182797 193 161 156 255 
0.007770211 0.1936501 0.188183 218 195 192 255 
0.0004202425 0.1899801 0.189787 245 238 237 255 
0.008599907 0.1436502 -0.06067999 170 125 114 255 
0.02031007 0.1594802 0.05385201 169 123 112 255 
0.0218803 0.1541601 0.07606804 169 130 119 255 
0.02694002 0.1525601 0.09927204 180 144 135 255 
0.02024999 0.1599902 0.101113 171 126 117 255 
0.02958027 0.1544001 0.124664 186 153 146 255 
0.02465025 0.1655202 0.116118 182 145 137 255 
0.02734008 0.1642202 0.135642 198 173 167 255 
0.02328029 0.1598601 0.146116 157 125 117 255 
0.01897016 0.1675402 0.155623 142 109 101 255 
0.01207986 0.1662402 0.165203 135 99 89 255 
0.01215997 0.1735601 0.173659 203 180 174 255 
0.005390316 0.1806902 0.187348 208 178 172 255 
0.01472011 0.1362202 -0.04833199 166 125 112 255 
0.01956001 0.12767 -0.03604399 118 82 67 255 
0.01975027 0.12695 -0.03577599 117 81 66 255 
0.01778999 0.1273801 -0.03599999 121 85 71 255 
0.02115026 0.1348102 -0.02276598 60 33 21 255 
0.02055994 0.1282601 -0.01016499 61 36 24 255 
0.01732031 0.1378002 0.002793011 61 37 24 255 
0.02401987 0.1400001 0.05338203 167 125 112 255 
0.02292028 0.1406301 0.07843601 127 89 77 255 
0.01948991 0.1485002 0.08730402 160 121 110 255 
0.01799026 0.1424101 0.09862202 155 118 107 255 
0.01848999 0.1463401 0.101184 167 132 121 255 
0.0190703 0.1495302 0.109888 176 140 131 255 
0.02380005 0.1512601 0.113239 179 144 135 255 
0.02300993 0.1540402 0.133723 179 152 144 255 
0.01693025 0.1508001 0.144381 97 61 49 255 
0.01659027 0.1505202 0.143627 97 62 51 255 
0.01640001 0.1552001 0.156771 98 58 47 255 
0.0168201 0.1624101 0.169566 157 114 103 255 
0.008700043 0.1642701 0.17912 201 178 172 255 
0.0003701746 0.1620601 0.187113 234 221 218 255 
0.02290025 0.1076801 -0.06392898 167 138 118 255 
0.01836029 0.11025 -0.06232798 166 134 115 255 
0.01832023 0.11937 -0.04942599 168 125 111 255 
0.01812997 0.11904 -0.04892999 167 125 110 255 
0.01526991 0.12236 -0.05012299 168 125 111 255 
0.0203301 0.1120701 -0.03618099 140 102 87 255 
0.02077022 0.1115701 -0.03585199 138 100 85 255 
0.02035013 0.1117201 -0.03589599 138 101 85 255 
0.02155986 0.1198401 -0.02284699 65 36 23 255 
0.02084032 0.1201701 -0.02278498 65 36 23 255 
0.02835003 0.12344 0.02523901 111 76 64 255 
0.01799026 0.1284001 0.03361701 154 115 102 255 
0.02495018 0.12448 0.05348103 142 105 93 255 
0.01535001 0.1376501 0.08734401 135 98 87 255 
0.02459016 0.1268401 0.07908602 102 70 59 255 
0.01806989 0.1318102 0.100489 123 88 76 255 
0.01644006 0.1404102 0.112674 131 96 84 255 
0.01692024 0.1330201 0.123767 85 52 39 255 
0.01509014 0.1398501 0.134202 88 52 40 255 
0.01653019 0.1441202 0.133709 99 66 54 255 
0.01460996 0.1446402 0.152719 118 81 69 255 
0.0190002 0.1424701 0.155501 136 98 86 255 
0.01715007 0.1475501 0.169574 162 121 108 255 
0.02552 0.1412401 0.181267 190 158 148 255 
0.0145103 0.09745003 -0.05859599 168 128 113 255 
0.01895013 0.10359 -0.04588 165 126 110 255 
0.01885 0.09614015 -0.032588 129 94 78 255 
0.02274004 0.1033902 -0.02081299 70 40 25 255 
0.02339998 0.1092 -0.007188996 67 42 29 255 
0.02489009 0.1003301 0.005902009 66 41 28 255 
0.0159699 0.1052501 0.015765 68 41 29 255 
0.02827993 0.1083701 0.02569901 93 61 48 255 
0.03233019 0.0984602 0.03887202 104 73 60 255 
0.02664009 0.10903 0.05400403 88 58 46 255 
0.02691999 0.11711 0.066467 73 44 33 255 
0.02433029 0.1096301 0.07944302 81 56 44 255 
0.01823011 0.1202302 0.09237902 93 63 51 255 
0.0140802 0.1282801 0.112464 83 52 39 255 
0.01191011 0.12202 0.123229 128 96 82 255 
0.01419988 0.1270101 0.134442 130 96 82 255 
0.02217022 0.1261902 0.155615 169 133 121 255 
0.02323022 0.12011 0.169594 165 126 110 255 
0.004449993 0.08854008 -0.05395099 166 130 112 255 
0.02259031 0.08653022 -0.04537099 166 128 110 255 
0.02023998 0.08566022 -0.03490499 151 116 98 255 
0.01773992 0.09037018 -0.02114799 67 39 23 255 
0.02535024 0.08133006 -0.009525992 63 37 23 255 
0.01692024 0.09721017 -0.007651991 66 39 26 255 
0.02517 0.09449005 0.02562602 74 46 32 255 
0.02303997 0.08790016 0.03767802 69 45 30 255 
0.1116401 1.873851 -0.1459528 255 254 254 255 
0.1125299 1.827208 -0.1513674 255 255 255 255 
0.1000902 1.76547 -0.1377338 228 225 221 255 
0.1056801 1.755024 -0.1535518 254 255 254 255 
0.1059801 1.744437 -0.1534638 254 254 254 255 
0.1154901 1.738706 -0.1527053 254 255 254 255 
0.1057302 1.732103 -0.1371413 222 218 216 255 
0.1150199 1.703841 -0.1539634 254 255 254 255 
0.1117603 1.694158 -0.1603163 255 255 255 255 
0.1197201 1.697173 -0.1577763 255 255 255 255 
0.1045701 1.680289 -0.1510264 254 254 253 255 
0.1102201 1.68413 -0.1602682 255 255 255 255 
0.1056401 1.674445 -0.1603546 255 255 255 255 
0.1011302 1.670278 -0.1511431 253 252 252 255 
0.1141903 1.677636 -0.1598327 255 255 255 255 
0.1029102 1.646344 -0.1562999 254 254 253 255 
0.09964004 1.634462 -0.1722201 255 255 254 255 
0.0684301 1.502431 -0.1953551 244 243 242 255 
0.05736986 1.490841 -0.2036023 253 252 252 255 
0.06769004 1.486942 -0.2115004 254 255 254 255 
0.05742994 1.469258 -0.2197145 255 255 255 255 
0.04704013 1.471838 -0.2022318 224 223 220 255 
0.04302993 1.456903 -0.1943717 112 103 95 255 
0.03984991 1.441937 -0.1867588 76 63 54 255 
0.04268995 1.4367 -0.1942368 172 167 162 255 
0.04012027 1.431694 -0.1858699 78 66 57 255 
0.04241005 1.416589 -0.1938893 189 186 182 255 
0.03974023 1.421876 -0.1863064 74 62 55 255 
0.04276004 1.426721 -0.1953261 194 191 187 255 
0.0421702 1.406496 -0.1938389 196 192 189 255 
0.04092994 1.396557 -0.1951908 214 211 209 255 
0.04060999 1.401036 -0.1830479 68 57 49 255 
0.03735986 1.396234 -0.177016 45 30 20 255 
0.04550996 1.391043 -0.2011672 254 254 254 255 
0.0481402 1.386002 -0.2097827 255 255 255 255 
0.04038015 1.383857 -0.1923849 218 216 213 255 
0.04669014 1.372937 -0.2057787 255 255 255 255 
0.04504028 1.377922 -0.1972551 251 250 250 255 
0.03903022 1.373945 -0.1925825 233 231 229 255 
0.03470007 1.364263 -0.1755726 53 37 28 255 
0.02823988 1.36036 -0.1725706 50 31 21 255 
0.05252996 1.351917 -0.2065214 254 254 254 255 
0.03472009 1.35384 -0.174774 50 34 24 255 
0.0354301 1.343292 -0.1749655 60 44 35 255 
0.03009 1.338893 -0.1712747 61 42 31 255 
0.03681007 1.33254 -0.174688 70 56 47 255 
0.03333011 1.32782 -0.1690349 62 43 33 255 
0.03927007 1.315528 -0.2178998 255 255 255 255 
0.03978029 1.312088 -0.2153388 255 255 254 255 
0.1265203 1.299285 0.01429412 255 255 255 255 
0.05266014 1.298367 -0.2249767 255 255 255 255 
0.0479199 1.298859 -0.2110701 255 255 255 255 
0.03924003 1.288551 -0.2293855 255 255 255 255 
0.04659 1.293636 -0.2206807 254 255 254 255 
0.11294 1.279762 0.01167911 254 254 254 255 
0.04445997 1.282192 -0.2019009 216 214 212 255 
0.03949991 1.273245 -0.2016862 193 189 187 255 
0.11331 1.265299 -0.01804889 255 255 255 255 
0.1026103 1.270729 0.0090591 254 253 253 255 
0.09588018 1.253999 -0.0005488939 251 251 250 255 
0.03932014 1.256253 -0.2146803 254 255 254 255 
0.07219997 1.241694 -0.02456489 254 254 254 255 
0.03306022 1.232176 -0.2343581 255 255 255 255 
0.06779018 1.227716 -0.02458489 246 246 245 255 
0.07486024 1.232349 -0.01532489 233 231 229 255 
0.0286099 1.224659 -0.2254422 255 255 254 255 
0.01768032 1.222963 -0.2110146 254 254 253 255 
0.06689993 1.218287 -0.02168889 129 124 120 255 
0.02346006 1.210222 -0.1595568 54 35 25 255 
0.06439987 1.204451 -0.02319889 111 104 99 255 
0.05028024 1.214891 0.004258113 253 254 253 255 
0.03845993 1.18787 -0.1882315 111 92 85 255 
0.02755991 1.196567 -0.153835 58 38 28 255 
0.05624023 1.18935 -0.0339319 163 158 154 255 
0.03661028 1.183759 -0.007496894 254 255 255 255 
-0.04515013 1.179954 -0.004356892 254 254 253 255 
-0.03806004 1.181266 -0.01235989 254 254 254 255 
-0.07988009 1.196272 0.01208412 255 255 254 255 
-0.05304989 1.185566 0.0110121 254 255 254 255 
-0.11425 1.192147 0.08274912 255 255 254 255 
0.03747001 1.129024 -0.2368559 255 255 255 255 
-0.02864012 1.154045 -0.06907089 128 118 112 255 
-0.1227401 1.178739 0.08628812 251 251 250 255 
-0.12055 1.184046 0.09341013 254 254 254 255 
-0.25013 1.223518 0.3389681 255 255 255 255 
-0.1329697 1.171557 0.1008311 202 197 194 255 
-0.1904601 1.195177 0.3016331 255 255 255 255 
-0.06665978 1.135453 -0.04930389 255 255 254 255 
-0.07324013 1.142455 0.002225097 253 254 252 255 
-0.09231982 1.151764 0.008137096 244 243 242 255 
-0.09734997 1.146966 0.01425811 253 254 253 255 
-0.1370099 1.159058 0.06625813 142 136 130 255 
-0.1439899 1.163149 0.08916312 82 73 66 255 
-0.1421398 1.16751 0.1098621 129 121 116 255 
-0.18692 1.179685 0.2319261 243 243 242 255 
-0.18693 1.186186 0.2436501 254 254 254 255 
-0.09563002 1.141901 0.008618104 255 255 254 255 
-0.1560901 1.156531 0.08280712 224 223 221 255 
-0.2199501 1.177722 0.3001211 238 237 236 255 
-0.15637 1.150301 0.07122611 248 248 248 255 
-0.1501001 1.141507 0.06870912 255 255 254 255 
-0.1530097 1.141221 0.07095011 255 255 254 255 
-0.2255801 1.16886 0.3009761 124 118 111 255 
-0.01598009 1.07817 -0.2050742 252 252 251 255 
-0.2327999 1.143456 0.1680291 255 255 255 255 
-0.2232698 1.145828 0.1670301 255 255 255 255 
-0.26134 1.155962 0.3143431 235 234 233 255 
-0.0135797 1.06197 -0.1839771 74 52 45 255 
-0.2424501 1.141378 0.1602681 255 255 255 255 
-0.24169 1.140034 0.2049171 255 255 255 255 
-0.2354401 1.13383 0.2005071 255 255 255 255 
-0.24558 1.129991 0.1427231 255 255 255 255 
-0.2537597 1.128639 0.2464121 255 255 255 255 
-0.2535699 1.132879 0.2688751 255 255 255 255 
-0.0591 1.04548 -0.2170552 251 251 249 255 
-0.03422007 1.03678 -0.1935314 254 254 254 255 
-0.2145198 1.090692 -0.1190229 255 255 255 255 
-0.29608 1.140963 0.3117821 255 255 255 255 
-0.0630897 1.03425 -0.2169689 254 254 254 255 
-0.04433998 1.03451 -0.2023447 254 255 255 255 
-0.05611977 1.03826 -0.2078749 254 254 254 255 
0.56135 0.8815101 0.3244291 85 67 62 255 
-0.06529984 1.02245 -0.2165661 255 255 255 255 
0.5719301 0.8576502 0.3182061 71 50 43 255 
0.03856006 0.9710802 -0.1659786 254 255 254 255 
0.5701901 0.8375502 0.3197881 239 238 235 255 
0.5933701 0.82627 0.3503051 254 254 254 255 
0.02982011 0.9668702 -0.1405957 75 52 42 255 
0.5830301 0.8215102 0.3362301 254 255 255 255 
0.5658001 0.8199801 0.3350461 255 255 255 255 
0.5658001 0.8199801 0.3350461 255 255 255 255 
0.58454 0.8158401 0.361912 255 255 254 255 
0.02993026 0.9559301 -0.1402795 91 69 60 255 
0.02775016 0.9460002 -0.1253917 62 40 28 255 
0.02897993 0.9514701 -0.1349427 71 47 37 255 
0.02845016 0.9571902 -0.1253843 63 41 30 255 
0.02028003 0.9586302 -0.1293343 61 39 27 255 
0.02892986 0.9401702 -0.1347039 77 53 43 255 
0.02717987 0.9348801 -0.1253594 63 39 29 255 
-0.4020699 1.0384 -0.4918069 254 254 255 255 
-0.1899899 0.9628602 -0.3765909 254 255 254 255 
-0.4205697 1.0201 -0.4921059 255 255 255 255 
-0.3832901 1.01082 -0.4809689 255 255 255 255 
-0.3676299 1.00228 -0.4640749 255 255 255 255 
-0.1898898 0.9483802 -0.3645889 255 255 255 255 
0.01962009 0.8702102 -0.1581176 254 255 254 255 
0.04018989 0.8512201 -0.1532702 255 255 255 255 
0.03072992 0.8491602 -0.1319803 206 198 193 255 
0.3083901 0.6766603 -1.030585 253 253 253 255 
0.02927986 0.8249801 -0.1302205 233 228 225 255 
0.02963987 0.8251002 -0.1299077 230 224 221 255 
0.02954021 0.8197901 -0.1414279 254 254 254 255 
0.02971998 0.8190001 -0.1397047 254 254 253 255 
0.31506 0.6558002 -1.063798 252 252 252 255 
0.3149001 0.6609102 -1.055532 212 203 201 255 
0.3121602 0.6662903 -1.048224 115 89 83 255 
0.12385 0.7321202 -0.461509 255 255 255 255 
0.1222502 0.7329102 -0.4386239 255 255 255 255 
0.1208302 0.7259802 -0.4494179 255 255 255 255 
0.1332099 0.7228302 -0.404085 255 255 255 255 
0.13334 0.7339202 -0.273141 255 255 255 255 
0.09934011 0.7379001 -0.2323018 255 255 254 255 
0.10664 0.7433102 -0.2021472 255 255 255 255 
0.1086499 0.7366501 -0.1885396 255 255 254 255 
0.1303102 0.7126002 -0.4047419 255 255 255 255 
0.1254603 0.7094402 -0.3957459 254 254 254 255 
0.1249701 0.7157802 -0.3868949 254 254 254 255 
0.09786001 0.7211802 -0.295837 172 154 147 255 
0.09773031 0.7380302 -0.2086091 254 255 254 255 
0.10064 0.7319802 -0.1967514 254 254 254 255 
0.1377203 0.6920702 -0.4735459 255 255 254 255 
0.1144401 0.7100402 -0.3327319 132 106 96 255 
0.09415022 0.7109102 -0.2948859 88 52 41 255 
0.07330003 0.7214502 -0.22577 150 128 121 255 
0.0937902 0.6993302 -0.2949264 202 192 186 255 
0.09394994 0.7052702 -0.2844287 114 85 75 255 
0.01934019 0.7468601 -0.06306993 90 64 56 255 
0.08094993 0.6870002 -0.3047409 254 254 253 255 
0.08547989 0.6910301 -0.2963369 253 253 253 255 
0.06560007 0.6966902 -0.2785038 253 253 253 255 
0.05617014 0.6983001 -0.2549565 254 253 253 255 
0.03025022 0.7233702 -0.03601193 76 48 38 255 
0.05941024 0.6929302 -0.2865053 254 254 254 255 
0.07815996 0.6872202 -0.279423 254 254 254 255 
0.06686988 0.6914501 -0.2664149 254 254 254 255 
0.12598 0.6287403 -0.5816559 254 254 254 255 
0.14491 0.6085102 -0.6313109 255 255 255 255 
0.1478602 0.6025802 -0.6264089 255 255 255 255 
0.0945603 0.6482702 -0.3870569 254 255 254 255 
-0.13496 0.7349402 -0.1959662 255 255 255 255 
0.12209 0.5970302 -0.696838 255 255 255 255 
0.04471985 0.6686502 -0.1141969 69 43 31 255 
0.0937902 0.5788702 -0.9400769 122 96 91 255 
0.09664026 0.6004903 -0.6978109 255 255 255 255 
0.1180402 0.5796903 -0.7051769 254 254 253 255 
0.1390602 0.5854202 -0.636147 253 254 253 255 
0.03372017 0.6549301 -0.09908994 63 36 26 255 
0.1335503 0.5655202 -0.742674 254 254 254 255 
0.1328999 0.5701203 -0.6129629 76 48 39 255 
0.1345703 0.5756602 -0.5977469 82 53 45 255 
0.05031028 0.6406401 -0.1514338 254 255 254 255 
0.03623024 0.6450901 -0.1011519 72 43 35 255 
0.1873299 0.5951601 0.04808006 254 254 253 255 
0.1883899 0.5985901 0.05731007 254 254 254 255 
0.1155602 0.5528702 -0.812957 162 146 141 255 
0.12594 0.5418403 -0.822238 96 68 59 255 
0.13581 0.5530803 -0.7139919 232 227 224 255 
0.1409699 0.5520002 -0.622691 95 68 62 255 
0.1337701 0.5584202 -0.612922 110 87 81 255 
0.02980009 0.6282701 -0.1115899 252 252 251 255 
0.03028026 0.6331601 -0.1036639 183 169 165 255 
0.1021701 0.5310802 -0.9642889 254 255 254 255 
0.1594802 0.5204203 -0.865246 130 106 100 255 
0.12278 0.5404403 -0.813137 99 71 62 255 
0.1393901 0.5214003 -0.814788 101 69 61 255 
0.1180803 0.5483802 -0.5818899 254 255 254 255 
0.1214 0.5532102 -0.590968 254 254 254 255 
0.1126 0.5556203 -0.5357769 254 255 255 255 
0.01816002 0.6241902 -0.1281497 254 255 254 255 
0.02378002 0.6188302 -0.1119819 253 254 253 255 
0.02656999 0.6279101 -0.09250195 74 47 38 255 
0.02269998 0.6174802 -0.09259395 97 70 63 255 
0.16665 0.4975103 -0.898113 157 135 130 255 
0.1665699 0.5045403 -0.8751799 199 186 184 255 
0.1632501 0.5076702 -0.8656729 185 170 166 255 
0.1334602 0.5332002 -0.635505 247 245 245 255 
0.1292101 0.5360002 -0.6166599 253 253 253 255 
0.1236803 0.5314202 -0.6084199 255 255 254 255 
0.1212999 0.5325102 -0.6078179 255 255 254 255 
0.1251399 0.5285302 -0.5903849 255 255 255 255 
0.1095602 0.5444402 -0.5509069 255 255 255 255 
0.003359944 0.6132401 -0.09177794 65 41 30 255 
0.08361021 0.5160602 -0.962483 255 255 255 255 
0.1378299 0.4930602 -0.940389 254 255 255 255 
0.1613199 0.4914402 -0.8093939 245 242 240 255 
0.1277 0.5231302 -0.5994579 255 255 255 255 
0.1225502 0.5292502 -0.5905569 255 255 255 255 
0.1051199 0.5368102 -0.5357209 255 255 255 255 
0.03586021 0.5921801 -0.1333964 255 255 255 255 
0.1620199 0.4681502 -0.8528529 254 254 254 255 
0.03848997 0.5759002 -0.133607 255 255 255 255 
0.1489803 0.4702402 -0.828514 255 255 255 255 
0.1432802 0.4754602 -0.8170469 255 255 255 255 
0.02073017 0.5714802 -0.1280199 233 229 227 255 
0.01797023 0.5707401 -0.1168529 254 255 254 255 
0.03484026 0.5704801 -0.1222426 255 255 254 255 
0.03295007 0.5594201 -0.1218413 255 255 254 255 
0.02681985 0.5751102 -0.08730494 74 45 35 255 
0.06747022 0.4978902 -0.752338 255 255 255 255 
0.03970018 0.5494502 -0.1247994 255 255 255 255 
0.01029029 0.5530401 -0.07087396 65 37 29 255 
0.03474012 0.5301802 -0.09902196 233 229 227 255 
-0.1522997 0.6153002 0.03870106 254 254 254 255 
-0.14374 0.6091502 0.03404707 254 254 253 255 
0.01398006 0.5196601 -0.06855695 66 38 27 255 
-0.1669501 0.6037601 0.06243405 254 254 254 255 
-0.1540197 0.6061301 0.05536306 254 255 254 255 
0.0257403 0.5083102 -0.07576296 63 37 26 255 
-0.18305 0.6046401 0.06931105 254 255 255 255 
0.02926031 0.4870802 -0.1413995 201 190 187 255 
0.03811994 0.4858302 -0.1501687 253 253 253 255 
0.03022018 0.4924002 -0.1309196 113 84 78 255 
0.02010027 0.4984602 -0.07602595 61 35 25 255 
0.0048801 0.5030701 -0.05925795 61 36 25 255 
-0.17357 0.5927502 0.04569906 197 187 183 255 
-0.1816901 0.5860201 0.04371306 120 98 91 255 
-0.18831 0.5958601 0.06844306 254 254 254 255 
-0.1882499 0.6015002 0.07792607 255 255 255 255 
-0.1965898 0.5948602 0.07234606 255 255 254 255 
0.03054014 0.4781202 -0.1506671 254 254 254 255 
0.02782026 0.4787002 -0.1505639 254 254 254 255 
0.01971021 0.4865302 -0.07860495 64 39 29 255 
0.0101501 0.4944901 -0.04777296 66 40 28 255 
0.01362005 0.4908601 -0.05369896 70 42 32 255 
-0.2022799 0.5859102 0.07519206 254 254 254 255 
0.005190045 0.4629102 -0.1522236 255 255 254 255 
0.02878013 0.4621701 -0.158801 255 255 254 255 
0.02063003 0.4592001 -0.1505247 255 255 254 255 
0.02273002 0.4704002 -0.07700296 62 34 25 255 
0.005570084 0.4741402 -0.04577296 76 48 37 255 
0.01581016 0.4779102 -0.05261995 70 44 33 255 
-0.2006501 0.5726402 0.05801504 140 120 114 255 
-0.0279797 0.5073102 0.1195581 252 251 252 255 
-0.0006698072 0.4612801 -0.1618448 255 255 255 255 
0.01293007 0.4586402 -0.04479096 67 39 29 255 
-0.04510006 0.4967102 0.1282731 166 151 146 255 
-0.03539976 0.4933702 0.167379 255 255 255 255 
0.005020291 0.4561502 -0.02824596 106 77 68 255 
0.0002199709 0.4607302 -0.01436297 233 228 226 255 
-0.0143598 0.4608202 0.04099404 254 254 254 255 
-0.01838002 0.4700402 0.06913006 253 254 254 255 
-0.04534993 0.4847102 0.127561 201 189 187 255 
-0.002580017 0.4521002 0.0003890343 254 254 253 255 
0.005990177 0.4410802 0.0008360384 253 254 253 255 
-0.05316004 0.4763201 0.1274271 179 166 160 255 
0.02140012 0.4179301 -0.05322196 64 37 25 255 
0.002299935 0.4296602 -0.001093961 250 251 249 255 
0.001189858 0.4370801 0.007857041 253 254 253 255 
-0.02751002 0.4511001 0.06950204 145 124 119 255 
-0.0554398 0.4608601 0.109099 151 130 125 255 
-0.05551991 0.4608102 0.109355 153 133 127 255 
0.001000077 0.4233001 0.01356004 227 221 218 255 
-0.06470999 0.4594002 0.1162211 242 239 237 255 
-0.06153998 0.4569402 0.1175631 246 244 242 255 
-0.0680798 0.4642302 0.1250411 239 236 234 255 
-0.05419001 0.4349601 0.09338005 254 254 254 255 
-0.05902991 0.4373702 0.110288 254 254 254 255 
-0.05820975 0.4371701 0.1104551 254 254 254 255 
-0.0638698 0.4451702 0.117596 254 254 254 255 
-0.06031975 0.4387902 0.110154 254 254 254 255 
-0.06398997 0.4454801 0.1176621 254 254 254 255 
-0.0606297 0.4386501 0.110369 254 254 254 255 
-0.06399998 0.4453002 0.117946 254 254 254 255 
-0.07150015 0.4415202 0.125363 254 255 254 255 
-0.07647976 0.4483502 0.133191 255 255 254 255 
-0.07541975 0.4475602 0.132837 255 255 254 255 
-0.09648976 0.4589401 0.136527 255 255 255 255 
-0.03301987 0.4040501 0.03500704 242 239 237 255 
-0.04324993 0.4164301 0.06143205 254 254 254 255 
-0.0489901 0.4196602 0.07712604 254 254 254 255 
-0.0484198 0.4197901 0.07733203 254 254 254 255 
-0.04842982 0.4264702 0.08596604 253 254 254 255 
-0.06437001 0.4337902 0.10105 254 254 254 255 
-0.06566986 0.4341402 0.1010451 254 254 254 255 
-0.04976973 0.4215802 0.09508206 254 254 254 255 
-0.06450972 0.4335102 0.1009461 254 254 254 255 
-0.07112011 0.4409502 0.1253601 254 255 254 255 
-0.07137999 0.4412302 0.1256831 254 255 254 255 
-0.08653006 0.4477102 0.125594 254 255 254 255 
0.0101501 0.3712301 -0.08788097 254 255 255 255 
0.01707998 0.3710302 -0.04346896 63 37 26 255 
0.02600017 0.3481902 -0.08561698 255 255 254 255 
0.03817001 0.3282201 -0.08100197 254 254 254 255 
0.005310208 0.3491101 -0.01250997 79 51 43 255 
0.008929878 0.3451601 -0.02362597 59 33 22 255 
0.03329006 0.3167702 -0.05764297 112 85 76 255 
0.0005399287 0.3360201 -0.02541597 55 30 21 255 
0.002790123 0.3205202 -0.03213497 56 31 21 255 
0.007780224 0.2993602 -0.03010197 54 30 20 255 
0.01024023 0.3082602 -0.01296097 69 41 31 255 
0.004610211 0.2729901 -0.01024397 66 41 31 255 
0.004620224 0.2443701 0.04313403 238 226 223 255 
0.001770169 0.2309202 0.04277202 242 234 232 255 
0.01007 0.1958702 0.01404201 102 68 59 255 
0.03760019 0.1851601 0.156391 205 178 173 255 
0.02943006 0.1761502 0.155795 209 187 182 255 
0.00774017 0.1576902 0.004845022 59 34 23 255 
0.02706018 0.1611801 0.06677701 179 142 132 255 
0.02249017 0.1616201 0.08729803 169 124 114 255 
0.01839986 0.1418501 -0.03584399 94 60 47 255 
0.02429023 0.1436001 0.02045303 105 69 59 255 
0.02754989 0.1316102 0.06668603 89 51 40 255 
0.02697006 0.1165202 0.03975602 163 126 112 255 
0.02400032 0.10695 0.135518 159 123 109 255 
0.003270298 0.1256702 0.170654 182 150 139 255 
0.07435003 1.973298 -0.06589583 254 254 254 255 
0.09570995 1.95714 -0.1498337 255 255 255 255 
0.06878009 1.967234 -0.06479583 254 255 254 255 
0.1251599 1.917858 -0.1200234 247 247 246 255 
0.11926 1.924151 -0.1139128 201 198 196 255 
0.09725013 1.916958 -0.1129178 57 39 29 255 
0.11367 1.86362 -0.1393608 254 254 253 255 
0.10556 1.849345 -0.1410028 254 254 254 255 
0.1065499 1.848857 -0.1405557 255 254 254 255 
0.10941 1.838528 -0.1523299 255 255 254 255 
0.1104399 1.837638 -0.1530315 255 255 254 255 
0.1055399 1.838345 -0.1406661 254 254 254 255 
0.1048199 1.838788 -0.1411824 254 254 254 255 
0.1056301 1.837927 -0.1420129 254 254 254 255 
0.1056501 1.844037 -0.1503314 254 255 254 255 
0.10663 1.843151 -0.1510286 255 255 254 255 
0.1088702 1.842779 -0.148852 254 255 254 255 
0.1048099 1.843688 -0.1328044 242 241 239 255 
0.1075203 1.822424 -0.1477935 254 255 254 255 
0.10418 1.828214 -0.1414573 254 255 254 255 
0.1085202 1.832608 -0.1477752 254 255 254 255 
0.1058499 1.827693 -0.1397273 254 255 254 255 
0.1042 1.822836 -0.1306739 222 220 217 255 
0.1010601 1.8286 -0.1259534 153 145 138 255 
0.09476009 1.824206 -0.1224775 76 60 47 255 
0.1054102 1.81749 -0.1390448 254 254 254 255 
0.1119701 1.806338 -0.1387226 254 255 254 255 
0.09429994 1.810115 -0.127823 95 80 69 255 
0.09937015 1.798305 -0.1284282 139 129 122 255 
0.10418 1.79134 -0.1432357 249 249 248 255 
0.04392019 1.782745 -0.09039184 254 254 254 255 
0.04495016 1.787772 -0.08306585 255 255 254 255 
0.1037299 1.759994 -0.1417083 248 248 246 255 
0.0503203 1.756713 -0.09443785 208 206 203 255 
0.05472007 1.74588 -0.09403785 209 206 203 255 
0.05111995 1.75204 -0.08682285 252 251 250 255 
0.1120202 1.733106 -0.1545618 254 255 254 255 
0.1057502 1.709366 -0.16254 254 254 254 255 
0.1098501 1.688595 -0.1681406 255 255 255 255 
0.1085002 1.690159 -0.1470241 254 254 254 255 
0.1008603 1.68697 -0.1412885 243 242 240 255 
0.09771028 1.676371 -0.1441135 215 211 208 255 
0.09533992 1.66646 -0.1435972 195 189 184 255 
0.09185997 1.672598 -0.1372228 121 109 99 255 
0.08588997 1.670618 -0.1415277 95 76 64 255 
0.09457031 1.656007 -0.1471843 206 201 196 255 
0.08946005 1.662547 -0.138524 106 90 79 255 
0.09510008 1.639352 -0.1529233 225 222 220 255 
0.09918991 1.638473 -0.1798518 255 255 255 255 
0.09222999 1.629629 -0.1529386 214 211 207 255 
0.08768001 1.636497 -0.1485522 145 134 127 255 
0.1249701 1.612059 -0.1759477 255 255 255 255 
0.08867994 1.619354 -0.1493056 167 160 153 255 
0.09928003 1.602521 -0.1611005 250 250 249 255 
0.10241 1.611934 -0.1608261 253 253 253 255 
0.1072499 1.605034 -0.1662389 255 255 254 255 
0.1151702 1.607819 -0.1714448 255 255 255 255 
0.1212203 1.609498 -0.16991 255 255 255 255 
0.1180402 1.600148 -0.1704313 255 255 254 255 
0.03248993 1.617079 -0.1247309 160 155 149 255 
0.11329 1.593201 -0.1768396 255 255 255 255 
0.09595028 1.593182 -0.161425 246 245 244 255 
0.1023399 1.594894 -0.1610432 250 250 249 255 
0.09242025 1.600771 -0.162757 243 242 240 255 
0.1033002 1.576707 -0.1818261 255 255 255 255 
0.09282032 1.583791 -0.1617454 231 229 226 255 
0.08475986 1.581864 -0.1568928 157 149 141 255 
0.08897987 1.574575 -0.1618029 211 207 203 255 
0.08721986 1.565193 -0.163811 201 197 192 255 
0.08916011 1.574188 -0.1602539 201 196 191 255 
0.09979025 1.556661 -0.1818035 255 255 255 255 
0.09693018 1.550961 -0.1889167 255 255 254 255 
0.1003901 1.543717 -0.1951779 255 255 255 255 
0.09527031 1.534548 -0.1951916 255 255 255 255 
0.11225 1.513167 -0.2020051 255 255 255 255 
0.1122901 1.520597 -0.1963442 255 255 255 255 
0.06771007 1.51039 -0.1876128 195 192 188 255 
0.05835024 1.496433 -0.1959051 238 236 234 255 
0.05833021 1.484918 -0.2114643 254 255 254 255 
0.05344024 1.487169 -0.1959377 203 198 193 255 
0.05533996 1.475322 -0.2116655 249 249 248 255 
0.07009998 1.479934 -0.2148051 255 255 254 255 
0.05292001 1.481491 -0.2033422 226 225 223 255 
0.04762998 1.476658 -0.1923042 123 112 104 255 
0.04470029 1.466535 -0.192061 79 68 59 255 
0.03876987 1.426521 -0.1763815 59 43 33 255 
0.03937021 1.411774 -0.1859444 77 67 58 255 
0.03526989 1.41742 -0.1764263 51 35 24 255 
0.03456989 1.407423 -0.1764622 50 34 23 255 
0.03649011 1.407017 -0.1775474 49 34 24 255 
0.04044023 1.390481 -0.1838302 77 67 60 255 
0.04022995 1.38943 -0.1839316 78 68 61 255 
0.03740993 1.384742 -0.1762056 48 32 22 255 
0.03186002 1.391252 -0.1740318 46 28 18 255 
0.04782024 1.378201 -0.2143592 255 255 255 255 
0.03845993 1.379246 -0.1838591 94 84 77 255 
0.03606001 1.374458 -0.1755917 55 39 30 255 
0.04317012 1.36867 -0.2148312 255 255 255 255 
0.02979007 1.370592 -0.1722623 56 37 27 255 
0.03175989 1.369891 -0.1688868 55 37 26 255 
0.0295302 1.349406 -0.1707118 50 32 21 255 
0.03797022 1.32157 -0.1741976 75 62 53 255 
0.02928987 1.323057 -0.1628071 67 48 37 255 
-0.3758601 1.392188 0.4214291 255 255 255 255 
0.03748003 1.310446 -0.1742273 76 63 54 255 
0.1258699 1.290599 0.01185912 255 255 254 255 
0.03786007 1.299255 -0.1743938 73 59 50 255 
0.03590026 1.305317 -0.1660352 59 43 33 255 
0.04577985 1.288291 -0.2113353 254 254 254 255 
0.03852001 1.294503 -0.1837273 183 178 173 255 
0.1047603 1.264544 -0.00946089 255 255 255 255 
-0.3021801 1.332416 0.4008331 255 255 255 255 
-0.3082698 1.323293 0.4011281 255 255 255 255 
0.0810701 1.248056 -0.0272969 255 255 255 255 
0.07348028 1.250751 -0.0232919 255 255 254 255 
-0.3268698 1.315948 0.3878531 254 254 254 255 
-0.3300398 1.325083 0.3996111 255 255 254 255 
0.08791986 1.232568 0.04569411 255 255 255 255 
-0.3100499 1.308507 0.3834811 255 255 255 255 
0.002659947 1.250275 -0.1427459 68 51 41 255 
0.08324018 1.214595 -0.2546477 254 255 255 255 
0.02581993 1.231074 -0.2443952 255 255 255 255 
0.03863016 1.220742 -0.2342999 254 255 254 255 
0.01676002 1.228762 -0.2178349 254 254 254 255 
0.23131 1.175254 -0.3118215 255 255 255 255 
0.2307202 1.167789 -0.3205269 255 255 255 255 
0.05284992 1.21613 -0.2428862 254 255 255 255 
0.03653017 1.206754 -0.004835887 254 254 253 255 
-0.3381599 1.276286 0.3941161 157 153 147 255 
-0.3704899 1.275648 0.4133311 255 255 255 255 
0.2176 1.16789 -0.3027055 253 253 253 255 
0.2235099 1.166738 -0.3100739 255 255 255 255 
0.2060401 1.164138 -0.2979446 254 254 254 255 
0.05145994 1.184131 -0.05890989 156 149 143 255 
0.0541102 1.183762 -0.02312489 254 254 254 255 
0.04871002 1.18618 -0.01627989 254 254 253 255 
0.002629906 1.195792 -0.01264989 254 255 254 255 
-0.267 1.243539 0.3508421 255 255 255 255 
-0.3307398 1.256947 0.3888351 238 237 235 255 
-0.3443597 1.267042 0.3941871 251 250 250 255 
-0.3441199 1.266707 0.3956351 252 252 251 255 
-0.3401297 1.25721 0.3923481 254 254 254 255 
-0.3352798 1.266586 0.3922491 208 206 202 255 
-0.3394001 1.257288 0.3910861 254 254 253 255 
-0.36384 1.267321 0.4028301 255 255 255 255 
-0.3634199 1.266812 0.4050401 255 255 255 255 
-0.3539699 1.267239 0.3984691 255 255 254 255 
-0.3545698 1.266528 0.4012631 255 255 255 255 
-0.3717798 1.266831 0.4092891 255 255 255 255 
0.1964099 1.152497 -0.2893669 255 255 255 255 
0.02493015 1.180988 -0.04829389 233 231 228 255 
0.01508012 1.181925 -0.0402519 254 254 253 255 
0.01656023 1.18787 -0.02740189 255 255 254 255 
0.007249981 1.188482 -0.03205089 254 254 254 255 
-0.02594981 1.188618 -0.007772893 255 255 254 255 
-0.006510109 1.187946 -0.0144109 255 255 254 255 
-0.02385983 1.188947 -0.007669896 255 255 254 255 
-0.2379898 1.227563 0.3462431 255 255 255 255 
-0.2671598 1.231621 0.3508331 255 255 254 255 
-0.3355897 1.247643 0.3886031 254 255 254 255 
-0.3542698 1.247819 0.3969891 255 255 254 255 
-0.3500699 1.257268 0.3968001 255 254 255 255 
-0.34911 1.257407 0.3953911 255 254 255 255 
-0.3448099 1.247887 0.3916281 255 255 255 255 
-0.3553499 1.247826 0.3975521 255 255 254 255 
-0.3595298 1.257532 0.4006171 255 255 254 255 
-0.3594798 1.257452 0.4010211 255 255 254 255 
-0.3695801 1.25753 0.4054851 255 255 255 255 
-0.3695401 1.257538 0.4053681 255 255 255 255 
0.1883999 1.14293 -0.2813257 254 255 255 255 
0.1955301 1.137739 -0.2810759 255 255 255 255 
0.02512994 1.170658 -0.06015391 202 198 194 255 
0.01502004 1.173785 -0.05024089 250 250 249 255 
-0.01988015 1.17612 -0.03624889 252 252 251 255 
-0.004370064 1.176285 -0.0416719 254 254 254 255 
-0.02806982 1.1857 -0.02963689 254 254 254 255 
-0.04446015 1.190468 -0.01231289 255 255 254 255 
-0.04424986 1.190779 -0.0115819 255 255 254 255 
-0.06882986 1.192728 0.02318411 255 255 255 255 
-0.25783 1.223642 0.3417071 255 255 255 255 
-0.3142999 1.231946 0.3761421 243 243 239 255 
-0.3074301 1.227865 0.3744921 232 230 226 255 
-0.3450797 1.239003 0.3889771 255 255 255 255 
-0.3483499 1.237978 0.3938851 255 255 255 255 
-0.3518599 1.239998 0.3861201 255 255 255 255 
-0.3510297 1.238245 0.3941051 255 255 255 255 
-0.3699101 1.250354 0.3925341 255 255 254 255 
-0.3550299 1.2384 0.3944131 255 255 254 255 
-0.3628601 1.24892 0.3963711 255 255 255 255 
0.01183 1.162959 -0.0769739 111 91 82 255 
-0.002689689 1.158893 -0.06842989 88 71 64 255 
0.00101009 1.162714 -0.0553609 156 144 139 255 
0.01017013 1.162717 -0.06149289 169 159 154 255 
-0.01296982 1.166797 -0.0431089 175 167 163 255 
-8.997321e-05 1.167544 -0.05066289 217 212 209 255 
-0.03062996 1.168542 -0.0363279 153 146 139 255 
-0.03485999 1.167562 -0.0310459 114 105 93 255 
-0.04130968 1.171588 -0.009463893 199 194 191 255 
-0.03498968 1.173882 -0.0179309 238 236 234 255 
-0.05076012 1.171538 -0.005424904 177 171 166 255 
-0.06385979 1.178513 0.003611102 246 245 243 255 
-0.09113011 1.181604 0.03366011 251 251 250 255 
-0.1438697 1.194313 0.1165781 255 255 255 255 
-0.1341299 1.190365 0.1271411 255 255 255 255 
-0.2271098 1.19889 0.3160041 255 255 255 255 
-0.3166798 1.22286 0.3794451 254 254 254 255 
-0.3257998 1.22033 0.3787241 255 255 255 255 
-0.3363899 1.220373 0.3823011 255 255 255 255 
-0.3411501 1.229769 0.3854991 255 255 255 255 
-0.3558601 1.231147 0.3834151 255 255 255 255 
-0.3435801 1.228342 0.3911021 255 255 255 255 
-0.3489698 1.229456 0.3893431 255 255 255 255 
-0.01604971 1.152565 -0.07608089 76 63 57 255 
-0.007659763 1.152162 -0.0561059 73 57 49 255 
0.00293985 1.154502 -0.0618399 71 52 44 255 
-0.004939884 1.156754 -0.0635439 75 57 49 255 
-0.01208004 1.159976 -0.05146289 88 72 66 255 
-0.05025992 1.164145 -0.0115069 81 67 57 255 
-0.05722985 1.162907 -0.004941898 76 60 51 255 
-0.2214302 1.184614 0.3072771 254 254 253 255 
-0.2889198 1.202227 0.3604801 232 231 229 255 
-0.30806 1.202587 0.3671181 255 255 255 255 
-0.2990497 1.202788 0.3616051 252 252 251 255 
-0.3036998 1.212244 0.3669941 251 251 250 255 
-0.3054498 1.203194 0.3750051 255 255 254 255 
-0.3141397 1.212347 0.3716571 254 255 254 255 
-0.31755 1.211676 0.3793621 255 255 255 255 
-0.3172997 1.209531 0.3828641 255 255 255 255 
-0.31891 1.204507 0.3858711 255 255 255 255 
-0.3382801 1.218828 0.3880471 255 255 255 255 
-0.3321498 1.209017 0.3856041 255 255 255 255 
-0.3489297 1.218758 0.3925611 255 255 255 255 
-0.01511988 1.14496 -0.0865239 167 162 158 255 
-0.03286013 1.147746 -0.07984891 220 218 216 255 
-0.04346976 1.148778 -0.0729729 237 236 234 255 
-0.0729197 1.156119 -0.005865905 176 171 167 255 
-0.1951798 1.167333 0.2343081 158 156 153 255 
-0.2134198 1.16954 0.2938921 195 192 188 255 
-0.26732 1.181627 0.3330631 169 167 163 255 
-0.2983998 1.19427 0.3559481 254 254 254 255 
-0.3008398 1.187376 0.3694381 255 255 254 255 
-0.3088697 1.192089 0.3668421 255 255 255 255 
-0.29895 1.191874 0.3630781 254 255 254 255 
-0.2946199 1.191222 0.3730901 255 255 255 255 
-0.3184198 1.191765 0.3743871 255 255 255 255 
-0.30737 1.192583 0.3748291 255 255 255 255 
-0.3011497 1.196241 0.3797131 255 255 254 255 
-0.31226 1.200931 0.3741131 255 255 255 255 
-0.02426991 1.138736 -0.08788791 252 252 250 255 
-0.04319987 1.140787 -0.07989591 253 253 252 255 
-0.04239973 1.133676 -0.08212589 254 255 254 255 
-0.05310997 1.142513 -0.07258291 254 254 253 255 
-0.06025013 1.139076 -0.0609679 255 255 255 255 
-0.05329975 1.135551 -0.05555089 255 255 254 255 
-0.1056598 1.142658 0.02100511 252 252 251 255 
-0.1469 1.156578 0.07458311 174 170 166 255 
-0.1413701 1.155829 0.08192512 163 159 154 255 
-0.1927598 1.166751 0.2140181 79 73 68 255 
-0.2452601 1.173961 0.3120571 72 67 61 255 
-0.2659901 1.172864 0.3265241 211 209 206 255 
-0.27432 1.17276 0.3330501 247 247 246 255 
-0.2828997 1.171804 0.3411201 254 254 254 255 
-0.2986401 1.175816 0.3453961 255 255 255 255 
-0.2980398 1.180916 0.3480831 255 255 255 255 
-0.3051699 1.183136 0.3600821 255 255 255 255 
-0.30698 1.182637 0.3713301 255 255 255 255 
-0.06161007 1.132004 -0.07254691 255 255 255 255 
-0.1025198 1.131561 0.0219471 255 255 255 255 
-0.1039999 1.139943 0.02876409 254 255 254 255 
-0.1444901 1.138868 0.0522921 254 254 254 255 
-0.18587 1.147665 0.0871511 255 255 254 255 
-0.2727798 1.164413 0.3272131 251 251 250 255 
-0.2644599 1.164551 0.3204871 222 221 219 255 
-0.2809399 1.16572 0.3376881 254 254 254 255 
-0.2949599 1.166706 0.3410471 255 255 255 255 
-0.2933401 1.163941 0.3469981 255 255 255 255 
-0.3113898 1.174429 0.3576741 255 255 255 255 
-0.29856 1.17354 0.3512581 255 255 255 255 
-0.1635097 1.141685 -0.0818909 255 255 255 255 
-0.1778501 1.144306 0.07396309 255 255 254 255 
-0.1789797 1.135162 0.07551311 255 255 255 255 
-0.1869701 1.138289 0.1101301 255 255 254 255 
-0.2678297 1.145845 0.3129961 254 254 254 255 
-0.2726201 1.153446 0.3294351 255 255 255 255 
-0.2821401 1.155408 0.3373431 255 255 255 255 
-0.2904499 1.154866 0.3417721 255 255 255 255 
-0.2884901 1.159991 0.3545731 255 255 254 255 
-0.2941597 1.161548 0.3530381 255 255 255 255 
-0.2123798 1.135688 0.1143861 255 255 255 255 
-0.2597297 1.135103 0.2696581 255 255 255 255 
-0.2748798 1.145015 0.3303181 255 255 255 255 
-0.2871498 1.146099 0.3362961 255 255 255 255 
0.5610601 0.9006301 0.3258691 191 185 182 255 
-0.28525 1.132964 0.2999711 255 255 255 255 
0.58298 0.8620701 0.3681281 255 255 254 255 
0.5289901 0.8645102 0.2207231 235 233 231 255 
-0.009709686 1.00883 -0.1160979 94 78 69 255 
0.54276 0.8341202 0.2104241 254 254 254 255 
0.5439399 0.8339002 0.2107681 254 254 254 255 
0.5495499 0.8318402 0.2034591 254 254 254 255 
0.03639999 0.9841402 -0.1726979 254 254 254 255 
0.009349972 0.9962902 -0.1321205 63 41 30 255 
-0.008900017 0.9978001 -0.1153989 82 65 56 255 
0.5246199 0.8283602 0.2084871 245 245 243 255 
0.54243 0.8241102 0.2029041 254 255 254 255 
0.03329006 0.9717902 -0.1489508 173 165 160 255 
0.0254499 0.9733902 -0.1340386 61 38 27 255 
0.0291101 0.9774301 -0.1269217 66 43 31 255 
0.53289 0.8069801 0.1940281 255 255 254 255 
0.53657 0.8060801 0.1867381 255 255 254 255 
0.02632013 0.9619702 -0.1319708 60 38 27 255 
0.02002016 0.9696201 -0.1301211 66 43 32 255 
0.52235 0.8000202 0.1927171 254 255 254 255 
8.025765e-05 0.9610602 -0.1153929 60 39 28 255 
0.005109936 0.9497001 -0.1167809 57 36 25 255 
0.5122701 0.7926501 0.1920261 254 254 254 255 
0.02290025 0.9412302 -0.1163309 59 38 27 255 
0.03489986 0.9238001 -0.13575 132 117 111 255 
-0.1646799 0.9634102 -0.3415039 254 255 255 255 
0.01510015 0.8673302 -0.1097149 53 27 17 255 
0.3640801 0.7519301 0.1285881 253 254 253 255 
0.02505985 0.8506101 -0.1140009 62 36 25 255 
0.02756992 0.8607602 -0.1126529 62 35 25 255 
0.3628601 0.7353102 0.1277321 155 135 129 255 
0.02681985 0.8432602 -0.1184039 73 45 36 255 
0.02807012 0.8301702 -0.1192189 90 62 53 255 
0.02652994 0.8243601 -0.1094719 72 46 35 255 
0.02219024 0.8369602 -0.1099469 64 38 29 255 
0.01122013 0.8330401 -0.1040859 61 36 25 255 
0.38137 0.6981002 0.08810107 254 255 254 255 
0.02945009 0.8131802 -0.1296909 241 238 236 255 
0.02962032 0.8138502 -0.1311636 248 247 246 255 
0.02856031 0.8186902 -0.1193019 97 72 64 255 
0.37087 0.6914102 0.08419708 254 254 254 255 
0.03145996 0.8074602 -0.1399508 254 254 254 255 
0.02908006 0.8069001 -0.1185169 111 90 82 255 
0.04749027 0.7798702 -0.1532521 255 255 255 255 
0.02636018 0.7640401 0.0008180661 254 254 254 255 
0.02643028 0.7640202 0.0008300614 254 254 254 255 
0.1244103 0.7436802 -0.3986059 255 255 255 255 
0.1752001 0.7195601 -0.2598327 255 255 255 255 
0.10454 0.7366501 -0.1908457 254 255 254 255 
0.10665 0.7340401 -0.1802032 254 255 255 255 
0.1092602 0.7312602 -0.1694526 254 255 254 255 
0.11965 0.7315402 -0.323788 254 254 254 255 
0.09325996 0.7237402 -0.1974551 238 237 235 255 
0.0826799 0.7336901 -0.1849597 254 254 254 255 
0.09455028 0.7308801 -0.187198 254 255 254 255 
0.02203003 0.7458402 -0.06267493 89 64 56 255 
0.3172502 0.6865903 -1.047242 248 247 246 255 
0.3109402 0.6928702 -1.020097 255 255 255 255 
0.1098701 0.7180002 -0.3159198 195 182 176 255 
0.3348202 0.6696702 -1.082529 254 254 254 255 
0.35208 0.6689503 -1.092812 255 255 255 255 
0.3647601 0.6653903 -1.084919 253 253 253 255 
0.3252501 0.6745603 -1.064233 192 179 175 255 
0.3151702 0.6697503 -1.041949 172 157 152 255 
0.0784103 0.7125902 -0.2130693 104 74 67 255 
0.3147601 0.6552703 -1.048947 205 195 191 255 
0.3121001 0.6607403 -1.041768 96 68 60 255 
0.04727998 0.6922702 -0.007692932 253 253 253 255 
0.3235501 0.6421803 -1.082423 254 255 255 255 
0.31418 0.6494603 -1.042306 171 155 150 255 
0.32664 0.6441603 -1.04346 210 202 199 255 
0.08860984 0.6769701 -0.3104016 254 254 254 255 
0.05548015 0.6916201 -0.2672333 254 255 254 255 
0.03024021 0.6994601 -0.2583121 254 254 254 255 
0.32698 0.6290903 -1.052273 254 254 254 255 
0.32805 0.6222103 -1.043184 253 253 253 255 
0.3258301 0.6341503 -1.043509 245 243 242 255 
0.32242 0.6277703 -1.03671 242 240 239 255 
0.3216402 0.6289903 -1.035843 237 234 233 255 
0.0688602 0.6979303 -0.63552 255 255 255 255 
0.11404 0.6829702 -0.5645979 158 143 137 255 
0.07540002 0.6503302 -0.1692556 254 255 255 255 
0.01336017 0.6663401 -0.08157595 57 34 26 255 
0.1200201 0.6439502 -0.5333109 87 58 50 255 
0.08932987 0.6401502 -0.385309 254 255 255 255 
0.1095501 0.6383902 -0.5928909 254 255 254 255 
0.02486005 0.6432402 -0.09276694 60 34 25 255 
0.02363029 0.6375802 -0.08376094 49 27 17 255 
0.01816002 0.6336001 -0.07422695 55 33 22 255 
0.1242401 0.6246203 -0.66351 255 255 255 255 
0.1274201 0.6182802 -0.5380089 83 55 47 255 
0.01377025 0.6260902 -0.08404494 51 29 18 255 
0.11295 0.6099202 -0.663958 254 255 255 255 
0.1264702 0.6153702 -0.671517 255 255 255 255 
0.1412503 0.6098402 -0.6649659 255 255 255 255 
0.002190262 0.6145902 -0.06896595 53 32 21 255 
0.1049501 0.6006902 -0.685239 254 255 254 255 
0.002070099 0.6080601 -0.07906694 53 29 20 255 
-0.1060899 0.6446801 -0.003256935 254 255 255 255 
-0.09684977 0.6346102 -0.009073947 254 254 254 255 
-0.09959969 0.6377702 -0.009432945 254 254 254 255 
-0.11633 0.6423901 0.003772062 254 255 254 255 
-0.1069101 0.6408302 0.003873062 254 255 255 255 
-0.09929976 0.6286101 -0.01514794 252 252 251 255 
-0.1021498 0.6294402 -0.01544995 253 252 251 255 
-0.09908995 0.6277101 -0.01589095 251 250 249 255 
-0.09485993 0.6194202 -0.02093694 156 137 131 255 
-0.1176399 0.6261102 -0.003335943 253 254 252 255 
-0.1094001 0.6346802 -0.002893944 254 254 254 255 
-0.1077798 0.6279502 -0.008721937 254 254 253 255 
-0.1098998 0.6329801 -0.002460946 254 254 254 255 
-0.1077298 0.6269501 -0.009478946 253 253 252 255 
-0.1169699 0.6316102 0.004654061 254 255 254 255 
-0.1203097 0.6341702 0.003085058 254 255 254 255 
-0.1116298 0.6231802 0.02987006 254 254 254 255 
-0.1335801 0.6310002 0.02530706 255 254 254 255 
0.02908006 0.5627902 -0.08598094 74 45 34 255 
0.03740993 0.5678102 -0.09107395 123 100 96 255 
0.02128997 0.5687902 -0.07923194 58 33 22 255 
-0.1055602 0.6196202 -0.01500795 179 166 161 255 
-0.1108297 0.6100202 -0.01500595 122 95 89 255 
-0.1220201 0.6163901 -0.00342395 214 206 203 255 
-0.1144098 0.6182501 -0.008771947 207 197 194 255 
-0.1248997 0.6236901 0.003527055 254 254 253 255 
-0.1390398 0.6274902 0.02867106 254 255 254 255 
-0.12402 0.6169502 0.02395705 254 254 254 255 
-0.1150897 0.6147602 0.02415407 253 254 254 255 
0.04012027 0.5496502 -0.114702 255 254 254 255 
0.04764 0.5506002 -0.09705295 235 232 230 255 
0.02963987 0.5510502 -0.08619596 77 49 38 255 
0.04075018 0.5543702 -0.08772095 116 92 86 255 
0.04085031 0.5429002 -0.08853295 165 149 144 255 
0.02435985 0.5555102 -0.07611895 62 35 25 255 
0.008569866 0.5628102 -0.06064096 57 35 24 255 
-0.1088999 0.5984201 -0.02127995 251 250 249 255 
-0.09965977 0.5994002 -0.02004395 239 235 234 255 
-0.1280797 0.6047702 -0.005379952 130 109 102 255 
-0.1269897 0.6065402 -0.003538943 113 88 81 255 
