ply
format ascii 1.0
comment Created by Open3D
element vertex 1366
property double x
property double y
property double z
property uchar red
property uchar green
property uchar blue
end_header
-0.03355 1.24438 -0.0548821 0 0 0
-0.03353 3.17023 -0.0274442 0 0 0
-0.03352 0.76663 -0.0542649 0 0 0
-0.03352 1.09375 -0.961249 0 0 0
-0.03351 2.95419 -0.00820522 0 0 0
-0.0334701 0.617459 -0.0329362 0 0 0
-0.0334501 1.24253 -0.620503 0 0 0
-0.0334101 3.08778 -0.00857644 0 0 0
-0.0334101 3.18075 -0.0279339 0 0 0
-0.03339 0.643837 0.192772 0 0 0
-0.03336 0.794449 0.0644326 0 0 0
-0.03336 3.27556 0.0210714 0 0 0
-0.03334 1.4506 -0.0344716 0 0 0
-0.03332 1.45053 -0.0342826 0 0 0
-0.0332701 0.515086 0.091919 0 0 0
-0.0332501 0.203836 0.116981 0 0 0
-0.0332501 3.10438 -0.00473269 0 0 0
-0.0332301 0.541413 0.0942347 0 0 0
-0.03315 0.675081 0.224972 0 0 0
-0.0331399 3.08083 -0.00297881 0 0 0
-0.0331101 1.17431 -0.755114 0 0 0
-0.0330601 1.69366 -0.0562777 0 0 0
-0.0330501 2.85908 -0.0352929 0 0 0
-0.0330401 0.638037 0.179341 0 0 0
-0.0329502 1.38117 -0.073311 0 0 0
-0.0329101 1.03094 -1.15746 0 0 0
-0.0329001 -0.0146735 0.138744 0 0 0
-0.0328801 -0.0160419 0.135719 0 0 0
-0.03287 2.89168 -0.0144902 0 0 0
-0.03285 2.15437 0.098765 0 0 0
-0.03284 1.99933 -0.101049 0 0 0
-0.0328 1.07405 -1.01999 0 0 0
-0.0327899 1.61847 -0.0434745 0 0 0
-0.0327601 0.46445 -0.0433786 0 0 0
-0.0327601 0.554225 0.0922287 0 0 0
-0.0327301 1.01877 -1.1836 0 0 0
-0.0327101 1.07374 -0.0543792 0 0 0
-0.03267 0.490092 0.0921269 0 0 0
-0.03266 0.0831022 0.140618 0 0 0
-0.03262 0.605424 0.120307 0 0 0
-0.0326099 0.613539 0.123651 0 0 0
-0.0325901 1.32638 0.0834739 0 0 0
-0.0325201 0.993678 0.0750695 0 0 0
-0.0324202 0.379469 -0.0284281 0 0 0
-0.0324101 1.70285 -0.0901733 0 0 0
-0.0323701 1.01641 0.0706872 0 0 0
-0.0323501 1.85528 0.0204487 0 0 0
-0.03232 0.313549 -0.0230479 0 0 0
-0.03229 2.15504 0.0710005 0 0 0
-0.0322301 0.221841 -0.0438692 0 0 0
-0.0321901 1.68855 -0.0681518 0 0 0
-0.0321701 1.03371 0.065518 0 0 0
-0.03214 3.23301 -0.0152662 0 0 0
-0.03213 0.441097 0.101895 0 0 0
-0.03213 0.704586 0.21706 0 0 0
-0.03212 0.708474 -0.0606645 0 0 0
-0.0320799 0.0823016 0.13875 0 0 0
-0.0320401 0.572361 -0.0419486 0 0 0
-0.0320401 3.76582 0.00995447 0 0 0
-0.03197 1.25214 -0.240171 0 0 0
-0.03195 0.150282 0.0130547 0 0 0
-0.0319099 0.360295 0.106499 0 0 0
-0.0318701 2.90288 -0.0143128 0 0 0
-0.0318501 0.160977 0.114792 0 0 0
-0.0318401 0.256077 0.116258 0 0 0
-0.0318301 2.83863 -0.0376672 0 0 0
-0.0318201 1.18668 -0.773216 0 0 0
-0.0318 2.06946 -0.132687 0 0 0
-0.03179 1.07365 -1.03894 0 0 0
-0.03176 0.604795 0.12113 0 0 0
-0.0316701 0.697222 0.190621 0 0 0
-0.0316601 0.752175 -0.0490763 0 0 0
-0.0316401 0.28637 -0.0195224 0 0 0
-0.03163 0.252803 -0.0505253 0 0 0
-0.03163 1.10005 -0.994235 0 0 0
-0.03158 0.982087 -1.10045 0 0 0
-0.03157 1.60614 -0.0581742 0 0 0
-0.0315599 1.08269 -0.0666062 0 0 0
-0.0315402 1.60928 -0.0851328 0 0 0
-0.0315201 0.694576 -0.0599898 0 0 0
-0.0315001 2.13776 0.111572 0 0 0
-0.03142 0.999761 -1.18766 0 0 0
-0.0313899 0.228499 0.113999 0 0 0
-0.0313702 2.12005 0.014171 0 0 0
-0.0313301 0.695555 0.231456 0 0 0
-0.0313201 1.16515 0.0292628 0 0 0
-0.0313201 2.03707 -0.120765 0 0 0
-0.0313001 0.219625 -0.036532 0 0 0
-0.03128 0.850774 0.0518519 0 0 0
-0.03126 1.39788 0.0197393 0 0 0
-0.03124 1.65292 -0.0966164 0 0 0
-0.0311801 0.699647 0.192037 0 0 0
-0.03109 1.34635 -0.0659252 0 0 0
-0.03107 0.866161 0.0579633 0 0 0
-0.0309701 0.908602 0.0599876 0 0 0
-0.0309601 0.784196 -0.112904 0 0 0
-0.0309401 0.815681 0.0615047 0 0 0
-0.03091 1.6491 -0.0303629 0 0 0
-0.0309 2.91323 -0.0226951 0 0 0
-0.0308499 2.13276 0.0143241 0 0 0
-0.0308201 3.29824 0.0148284 0 0 0
-0.0307 1.99797 -0.0870627 0 0 0
-0.03069 2.0099 -0.0978885 0 0 0
-0.03069 2.75896 -0.0118501 0 0 0
-0.0306702 0.594012 -0.0352418 0 0 0
-0.03056 0.611479 0.110259 0 0 0
-0.03055 1.31251 -0.0606693 0 0 0
-0.03052 3.29416 0.0121358 0 0 0
-0.03051 2.09843 -0.194757 0 0 0
-0.0304902 1.02847 -1.16246 0 0 0
-0.0304701 3.13298 -0.037125 0 0 0
-0.0304101 1.11412 -0.00281371 0 0 0
-0.03038 0.687653 0.223873 0 0 0
-0.03036 1.07925 -1.02971 0 0 0
-0.03034 1.48688 -0.0345418 0 0 0
-0.03034 3.15422 -0.0198714 0 0 0
-0.0303102 1.60607 -0.0420842 0 0 0
-0.0303001 1.1138 0.0288147 0 0 0
-0.0302801 2.19099 -0.039489 0 0 0
-0.0302601 0.46333 0.0921967 0 0 0
-0.0302401 1.12926 0.0330671 0 0 0
-0.03021 1.0221 -1.17103 0 0 0
-0.0301201 0.640643 -0.034153 0 0 0
-0.0301201 1.33059 -0.0546693 0 0 0
-0.0301101 0.54638 -0.0219397 0 0 0
-0.0300801 2.19122 -0.043137 0 0 0
-0.0300801 3.16474 -0.0198113 0 0 0
-0.03 1.1781 -0.769016 0 0 0
-0.0299799 1.53717 -0.0355154 0 0 0
-0.0299602 0.823922 -0.162951 0 0 0
-0.0299201 0.650203 0.175968 0 0 0
-0.0299001 1.24643 -0.175848 0 0 0
-0.0299001 3.19729 -0.0197403 0 0 0
-0.02986 1.25494 -0.239082 0 0 0
-0.02984 0.0604019 0.149111 0 0 0
-0.02982 2.9212 -0.00338056 0 0 0
-0.02982 3.17527 -0.019701 0 0 0
-0.02981 0.648538 0.177371 0 0 0
-0.0297401 0.330955 0.107262 0 0 0
-0.0297301 3.14343 -0.0234445 0 0 0
-0.0297201 1.04818 0.0598695 0 0 0
-0.02967 2.16472 0.0751623 0 0 0
-0.02966 1.13841 0.0170021 0 0 0
-0.02964 0.295735 0.116673 0 0 0
-0.0296001 0.973352 -1.36064 0 0 0
-0.0295601 3.25116 -0.012266 0 0 0
-0.0295501 0.201321 -0.0391838 0 0 0
-0.0295401 2.87591 -0.0266161 0 0 0
-0.0295401 3.18586 -0.0199201 0 0 0
-0.02951 1.10397 -0.961712 0 0 0
-0.0295 1.63748 -0.0309847 0 0 0
-0.0294301 0.396684 0.10392 0 0 0
-0.0294301 3.76529 0.085353 0 0 0
-0.0294001 0.598081 0.113789 0 0 0
-0.0293801 1.70309 -0.0693996 0 0 0
-0.0293701 2.18235 0.118929 0 0 0
-0.02935 0.642336 0.167006 0 0 0
-0.02934 0.438412 -0.0361411 0 0 0
-0.02934 1.46153 -0.0297568 0 0 0
-0.02931 1.25921 0.0828606 0 0 0
-0.0291901 1.15095 0.0215334 0 0 0
-0.0291099 3.19641 -0.0208897 0 0 0
-0.0290801 0.206081 -0.0372441 0 0 0
-0.0290601 0.775819 0.0566372 0 0 0
-0.02899 0.64327 0.190537 0 0 0
-0.02894 2.8683 -0.026546 0 0 0
-0.02894 3.77447 0.0927499 0 0 0
-0.0289102 0.757815 0.357835 0 0 0
-0.0288801 1.03506 -1.13814 0 0 0
-0.0288501 0.0433775 0.145642 0 0 0
-0.02883 1.13862 0.00464353 0 0 0
-0.02881 1.12662 0.00032761 0 0 0
-0.0288 1.0684 -0.0711558 0 0 0
-0.02878 3.77678 0.061332 0 0 0
-0.0287499 3.05048 0.0103441 0 0 0
-0.0286801 2.04805 -0.12512 0 0 0
-0.0286701 1.02972 -1.14901 0 0 0
-0.0286701 2.14746 0.112074 0 0 0
-0.0286601 2.15963 0.113051 0 0 0
-0.02865 0.964854 -1.10883 0 0 0
-0.02862 2.00891 -0.103229 0 0 0
-0.02861 0.967649 -1.5696 0 0 0
-0.0285401 0.640622 0.152177 0 0 0
-0.0285001 1.05968 0.0412887 0 0 0
-0.02847 2.14828 0.112802 0 0 0
-0.02844 2.97855 -0.00942038 0 0 0
-0.02843 0.150838 0.124216 0 0 0
-0.02842 -0.000365336 0.143764 0 0 0
-0.0283999 2.15929 0.0786953 0 0 0
-0.0283501 2.82972 -0.139626 0 0 0
-0.0283301 1.24553 0.0835176 0 0 0
-0.0283101 2.85109 -0.028576 0 0 0
-0.02827 1.7334 -0.0703825 0 0 0
-0.0281601 1.50871 -0.0396837 0 0 0
-0.02812 0.803356 0.0628559 0 0 0
-0.0280201 1.07614 0.0215302 0 0 0
-0.0280201 2.86427 -0.0269683 0 0 0
-0.0280001 0.618544 0.132775 0 0 0
-0.0279801 0.908785 -0.059707 0 0 0
-0.0279701 2.19155 0.159868 0 0 0
-0.02794 3.3367 0.0238219 0 0 0
-0.02788 1.74837 -0.0700055 0 0 0
-0.0278699 0.191926 0.121686 0 0 0
-0.0278201 2.92405 -0.0215917 0 0 0
-0.0277901 0.218251 0.120462 0 0 0
-0.02773 3.20267 -0.0134638 0 0 0
-0.02771 0.414771 -0.0361388 0 0 0
-0.02771 1.74191 -0.109636 0 0 0
-0.0276899 2.14034 0.00166271 0 0 0
-0.0276702 0.718591 -0.0574284 0 0 0
-0.0276702 1.8654 0.0142244 0 0 0
-0.0276702 3.28369 0.0185863 0 0 0
-0.0276702 3.7599 0.0238832 0 0 0
-0.0276401 0.0228872 0.143628 0 0 0
-0.0276401 0.591264 -0.0306902 0 0 0
-0.02756 1.23894 -0.159855 0 0 0
-0.02755 -0.0042574 0.144893 0 0 0
-0.0275199 1.02933 0.0603922 0 0 0
-0.0274801 0.0257408 0.142348 0 0 0
-0.0274801 0.679241 0.216415 0 0 0
-0.0274601 1.68524 -0.0250442 0 0 0
-0.0274601 2.17971 0.145823 0 0 0
-0.0274301 0.534312 -0.0279262 0 0 0
-0.02741 1.18962 -0.817407 0 0 0
-0.02736 0.655686 -0.0391161 0 0 0
-0.02722 3.7544 0.013615 0 0 0
-0.02721 1.18313 -0.758792 0 0 0
-0.0271599 0.202922 0.00569529 0 0 0
-0.0271401 0.0758372 0.153462 0 0 0
-0.0271101 0.4756 -0.0405218 0 0 0
-0.0270801 0.983214 0.07164 0 0 0
-0.0270801 3.06247 0.00854931 0 0 0
-0.02707 0.52847 0.0915489 0 0 0
-0.02707 2.16004 0.114625 0 0 0
-0.02704 0.655867 0.164207 0 0 0
-0.0269802 0.921725 0.0530351 0 0 0
-0.0269802 3.14884 -0.0114772 0 0 0
-0.0269701 0.324852 -0.0165892 0 0 0
-0.0269501 1.07507 0.04188 0 0 0
-0.0269101 1.11854 0.00528341 0 0 0
-0.0269 1.23957 -0.630214 0 0 0
-0.02684 0.966815 -1.10504 0 0 0
-0.02684 1.41701 -0.0371338 0 0 0
-0.02683 0.687125 0.200806 0 0 0
-0.0268199 0.694517 0.175842 0 0 0
-0.0268099 0.880859 -0.052589 0 0 0
-0.0268099 1.25067 -0.587056 0 0 0
-0.0267701 0.967866 -0.0661387 0 0 0
-0.0267 3.15928 -0.011778 0 0 0
-0.02666 0.0218021 -0.0153622 0 0 0
-0.02666 0.672018 0.207138 0 0 0
-0.0265901 1.11556 -0.964361 0 0 0
-0.0265801 1.22808 -0.636065 0 0 0
-0.0265701 0.631316 -0.0335011 0 0 0
-0.0265701 0.677535 -0.0485275 0 0 0
-0.0265701 0.76905 0.370773 0 0 0
-0.0265701 3.19185 -0.0109667 0 0 0
-0.0265601 1.19896 -0.701553 0 0 0
-0.02655 0.271715 0.118372 0 0 0
-0.02655 1.84321 0.0239827 0 0 0
-0.02655 3.16985 -0.0111476 0 0 0
-0.02648 1.26659 0.0950182 0 0 0
-0.02648 1.61593 -0.0426609 0 0 0
-0.0264599 0.888647 0.0612588 0 0 0
-0.0264201 0.477121 0.0931613 0 0 0
-0.0262401 0.371911 0.10784 0 0 0
-0.0262301 1.2643 -0.0630544 0 0 0
-0.0262301 1.62731 -0.0558925 0 0 0
-0.02618 0.502513 0.0921674 0 0 0
-0.02615 0.606143 -0.0314844 0 0 0
-0.0260901 1.21591 -0.601831 0 0 0
-0.0260501 2.88109 -0.0179015 0 0 0
-0.02602 3.1804 -0.0113469 0 0 0
-0.02601 2.02286 -0.108844 0 0 0
-0.02598 0.314378 -0.0220392 0 0 0
-0.02596 0.120698 0.126871 0 0 0
-0.0259101 1.08923 -0.976237 0 0 0
-0.0258501 2.01808 -0.111043 0 0 0
-0.02581 0.453278 0.0980918 0 0 0
-0.02579 0.269046 -0.0277843 0 0 0
-0.0256901 1.22169 -0.588059 0 0 0
-0.02566 2.12647 0.0240889 0 0 0
-0.02565 1.19294 0.0407344 0 0 0
-0.02564 0.495015 -0.0265376 0 0 0
-0.0255899 1.08285 0.00932977 0 0 0
-0.0255301 2.15886 0.101722 0 0 0
-0.02547 0.691893 0.213487 0 0 0
-0.02544 1.10239 -0.98074 0 0 0
-0.0254099 1.62328 -0.0285933 0 0 0
-0.0254002 0.974602 -1.12005 0 0 0
-0.0253902 2.93473 -0.0213597 0 0 0
-0.0253801 1.78212 0.00366187 0 0 0
-0.0253601 1.20889 -0.756333 0 0 0
-0.0253201 3.27936 0.0468629 0 0 0
-0.0253 2.96628 -0.00936905 0 0 0
-0.0252299 3.13811 -0.01757 0 0 0
-0.0252001 1.64206 -0.0558382 0 0 0
-0.0252001 1.64958 -0.06832 0 0 0
-0.0251701 1.0955 -0.967411 0 0 0
-0.02507 1.18322 -0.7338 0 0 0
-0.02507 1.25277 0.0949938 0 0 0
-0.0250402 1.95102 -0.104326 0 0 0
-0.0250001 1.22925 -0.243761 0 0 0
-0.0249701 0.685924 0.164602 0 0 0
-0.02495 2.05883 -0.131758 0 0 0
-0.02495 3.2386 -0.00806711 0 0 0
-0.02493 0.301009 -0.0240991 0 0 0
-0.02492 0.652192 0.164569 0 0 0
-0.02476 3.80456 0.0586431 0 0 0
-0.02475 1.44358 -0.031125 0 0 0
-0.02473 0.388842 0.109788 0 0 0
-0.02473 1.64685 -0.0308366 0 0 0
-0.02473 2.84349 -0.138932 0 0 0
-0.0246801 2.16977 0.101807 0 0 0
-0.0246701 2.89657 -0.00816871 0 0 0
-0.0246601 0.691783 0.215376 0 0 0
-0.0246501 3.07646 -0.0113253 0 0 0
-0.0246401 0.979606 -1.54438 0 0 0
-0.02461 0.388684 0.109586 0 0 0
-0.02456 0.174819 0.120377 0 0 0
-0.02456 3.04786 -0.0513471 0 0 0
-0.02455 0.827681 0.0577401 0 0 0
-0.0245299 0.135547 0.0191707 0 0 0
-0.0245001 1.58631 -0.0450612 0 0 0
-0.0244801 0.427516 0.103892 0 0 0
-0.0244801 0.630582 -0.0302785 0 0 0
-0.02442 1.18299 -0.734483 0 0 0
-0.02442 1.24341 -0.598632 0 0 0
-0.02441 2.93961 -0.0107184 0 0 0
-0.02439 2.84818 -0.126362 0 0 0
-0.02438 0.243135 0.117312 0 0 0
-0.02438 1.20101 -0.818329 0 0 0
-0.02437 2.01865 -0.112117 0 0 0
-0.0243599 1.02014 0.0682161 0 0 0
-0.0243101 0.0575028 0.14615 0 0 0
-0.0243001 1.23014 -0.5788 0 0 0
-0.02425 0.642742 0.195171 0 0 0
-0.02424 1.24279 -0.578408 0 0 0
-0.02424 3.12383 -0.00953891 0 0 0
-0.02423 0.896813 -0.058562 0 0 0
-0.02421 1.29565 0.102233 0 0 0
-0.0242 0.208126 0.127526 0 0 0
-0.0241702 2.87399 -0.019436 0 0 0
-0.0241401 1.0059 0.0751975 0 0 0
-0.02409 1.23629 -0.588646 0 0 0
-0.02408 1.23761 -0.609144 0 0 0
-0.02407 0.249335 -0.0402413 0 0 0
-0.0239801 2.1898 0.141218 0 0 0
-0.0239501 1.21065 -0.651318 0 0 0
-0.0239301 1.23906 0.09539 0 0 0
-0.0239201 0.167427 -0.0312385 0 0 0
-0.0239 0.771859 -0.0464997 0 0 0
-0.0239 0.934515 -1.65534 0 0 0
-0.02389 1.47249 -0.0331823 0 0 0
-0.02388 1.6361 -0.0696814 0 0 0
-0.02388 3.82404 0.0637774 0 0 0
-0.02385 1.61684 -0.0171902 0 0 0
-0.02385 1.62889 -0.0804973 0 0 0
-0.0237901 0.349108 0.103301 0 0 0
-0.0237901 1.20834 -0.642882 0 0 0
-0.0237801 0.183941 -0.0315553 0 0 0
-0.0237801 3.7634 0.0688523 0 0 0
-0.02374 0.787557 0.0531198 0 0 0
-0.02374 1.38018 0.0984081 0 0 0
-0.02373 0.658284 0.0794775 0 0 0
-0.02371 2.90036 -0.100874 0 0 0
-0.02368 0.707061 0.163063 0 0 0
-0.0236599 3.20759 -0.0104218 0 0 0
-0.0235901 0.872537 -0.0610064 0 0 0
-0.02355 0.677295 0.159731 0 0 0
-0.02355 3.3066 0.0246268 0 0 0
-0.02354 1.22368 -0.61509 0 0 0
-0.0234799 2.19874 0.11041 0 0 0
-0.0234799 2.90115 -0.119877 0 0 0
-0.0234702 0.692168 0.178588 0 0 0
-0.0234702 1.19739 -0.647677 0 0 0
-0.0234702 1.52558 -0.0309364 0 0 0
-0.0234601 1.21469 -0.766842 0 0 0
-0.0234401 0.229788 -0.0310356 0 0 0
-0.0234301 3.18954 -0.00641066 0 0 0
-0.02339 2.87383 -0.0223575 0 0 0
-0.02338 0.661968 0.204163 0 0 0
-0.02337 0.579095 -0.0328176 0 0 0
-0.02337 0.660638 0.175558 0 0 0
-0.02333 1.37995 0.0987957 0 0 0
-0.0233099 0.648139 0.209738 0 0 0
-0.0232999 1.24879 -0.567444 0 0 0
-0.0232601 1.21581 -0.57606 0 0 0
-0.0232501 0.0937103 0.137019 0 0 0
-0.0232401 1.18874 -0.744293 0 0 0
-0.02319 1.61558 -0.0773964 0 0 0
-0.02318 1.20374 -0.659291 0 0 0
-0.02317 1.54728 -0.0339093 0 0 0
-0.0231101 1.22263 -0.299153 0 0 0
-0.0231001 0.919322 -0.0574064 0 0 0
-0.0230801 0.450455 -0.0487058 0 0 0
-0.0230601 0.675655 -0.0485172 0 0 0
-0.0230401 0.69859 -0.0622381 0 0 0
-0.023 0.163609 0.0152844 0 0 0
-0.02298 2.82084 -0.130219 0 0 0
-0.02297 0.425329 -0.0330278 0 0 0
-0.02297 3.32724 0.0273531 0 0 0
-0.0229402 3.32706 0.0276812 0 0 0
-0.0229101 1.85354 0.0187204 0 0 0
-0.0228801 0.338439 -0.0029259 0 0 0
-0.0228801 1.18847 -0.724044 0 0 0
-0.02286 1.23536 -0.148652 0 0 0
-0.02281 0.66152 0.170556 0 0 0
-0.0227601 0.676805 0.183578 0 0 0
-0.0227401 2.03828 -0.127583 0 0 0
-0.02266 0.78856 0.374628 0 0 0
-0.02261 0.977087 -1.55594 0 0 0
-0.0225501 0.975369 -1.48167 0 0 0
-0.02249 1.26343 -0.277155 0 0 0
-0.02244 0.569722 0.088721 0 0 0
-0.0223901 2.95485 -0.00925839 0 0 0
-0.0223601 0.138506 0.127207 0 0 0
-0.0223601 1.21291 -0.74431 0 0 0
-0.0223601 1.60116 -0.033975 0 0 0
-0.0223 1.63492 -0.0310516 0 0 0
-0.02228 0.661176 0.171933 0 0 0
-0.02228 2.16843 0.0775611 0 0 0
-0.02227 1.38588 0.0637158 0 0 0
-0.02226 1.21241 -0.743355 0 0 0
-0.02226 1.21528 -0.28633 0 0 0
-0.0222499 0.653277 0.16411 0 0 0
-0.0222402 1.21418 -0.729486 0 0 0
-0.0222402 2.9129 -0.0137082 0 0 0
-0.0222302 1.2195 -0.756201 0 0 0
-0.0222101 0.966457 -1.10428 0 0 0
-0.0222101 1.19466 -0.73485 0 0 0
-0.0221601 1.03523 0.0338125 0 0 0
-0.02215 3.05255 -0.0420473 0 0 0
-0.02212 1.24963 -0.588037 0 0 0
-0.02209 0.566061 -0.0353542 0 0 0
-0.0220699 1.2188 -0.754258 0 0 0
-0.0220501 1.64412 -0.0829382 0 0 0
-0.0220501 2.92382 -0.0135738 0 0 0
-0.0220101 1.2136 -0.727802 0 0 0
-0.02197 2.91194 -0.00834781 0 0 0
-0.02193 3.15329 -0.0109609 0 0 0
-0.02192 1.27997 -0.0563396 0 0 0
-0.0218902 3.18596 -0.00897834 0 0 0
-0.0218601 0.978586 -0.0641562 0 0 0
-0.0218601 2.90704 -0.110705 0 0 0
-0.0218501 0.243382 -0.052354 0 0 0
-0.0218101 0.660972 0.191382 0 0 0
-0.02177 1.19615 -0.661851 0 0 0
-0.02176 1.19459 -0.71661 0 0 0
-0.0217001 0.668533 0.191321 0 0 0
-0.0216901 1.27313 -0.284464 0 0 0
-0.0216701 1.22099 -0.64689 0 0 0
-0.0216501 0.158956 0.022236 0 0 0
-0.02162 0.713861 -0.0488572 0 0 0
-0.02161 0.214911 -0.029551 0 0 0
-0.02159 1.2189 -0.754488 0 0 0
-0.02158 2.15169 0.120828 0 0 0
-0.02157 0.897718 -0.0591028 0 0 0
-0.02157 3.78498 0.0576178 0 0 0
-0.0214601 1.21617 -0.154633 0 0 0
-0.02142 0.486741 -0.0377051 0 0 0
-0.02142 1.21974 -0.738078 0 0 0
-0.0214 0.25712 -0.0292391 0 0 0
-0.02139 1.62005 -0.0668591 0 0 0
-0.0213699 2.91255 -0.100807 0 0 0
-0.0213501 1.21933 -0.736912 0 0 0
-0.0213401 1.01422 -1.18894 0 0 0
-0.0212901 0.379241 -0.02105 0 0 0
-0.02125 1.20053 -0.744849 0 0 0
-0.0211701 1.01871 -1.17658 0 0 0
-0.0211401 1.25687 -0.57626 0 0 0
-0.02108 1.24893 -0.214303 0 0 0
-0.02104 1.21889 -0.774589 0 0 0
-0.02104 1.21899 -0.243919 0 0 0
-0.0210199 0.690752 0.154302 0 0 0
-0.0210102 1.19511 -0.645551 0 0 0
-0.0209801 2.03684 -0.122438 0 0 0
-0.02093 0.309119 0.116373 0 0 0
-0.02092 0.0634957 -0.0192961 0 0 0
-0.02092 2.21077 0.113977 0 0 0
-0.0207901 2.91962 -0.112893 0 0 0
-0.0207701 1.49676 -0.0379386 0 0 0
-0.02074 0.598522 -0.0209635 0 0 0
-0.02071 1.1823 0.0373827 0 0 0
-0.0206501 2.90109 -0.0112616 0 0 0
-0.0206101 3.04463 0.0118126 0 0 0
-0.02055 0.0127717 0.145072 0 0 0
-0.02051 2.84854 -0.110308 0 0 0
-0.0204999 1.19491 -0.666314 0 0 0
-0.0204701 1.22387 -0.166543 0 0 0
-0.0204601 0.758884 0.348366 0 0 0
-0.0204601 3.30149 0.0401038 0 0 0
-0.0204201 2.92486 -0.100608 0 0 0
-0.02034 0.691587 -0.0505706 0 0 0
-0.0202901 0.976362 -1.46476 0 0 0
-0.0202901 1.21869 -0.776521 0 0 0
-0.0202801 0.541262 0.0895527 0 0 0
-0.0202801 1.19432 -0.699552 0 0 0
-0.0202701 1.09252 0.00295044 0 0 0
-0.0202601 0.0849817 -0.00639033 0 0 0
-0.0202601 1.22431 -0.74474 0 0 0
-0.0202501 1.22569 -0.27515 0 0 0
-0.02023 3.20747 0.00532765 0 0 0
-0.02022 1.42864 -0.0395121 0 0 0
-0.02017 1.20133 -0.653766 0 0 0
-0.0201399 0.67393 -0.0414052 0 0 0
-0.0201399 2.95622 -0.00505386 0 0 0
-0.0201399 3.18401 0.00216167 0 0 0
-0.0201101 0.71658 -0.0382981 0 0 0
-0.0201001 1.21931 -0.719781 0 0 0
-0.0200901 0.898328 0.0545201 0 0 0
-0.0200601 1.60274 -0.0271383 0 0 0
-0.02 1.20669 -0.719323 0 0 0
-0.02 1.21383 -0.713708 0 0 0
-0.0199699 1.77388 0.0136761 0 0 0
-0.0199699 3.22894 -0.0053881 0 0 0
-0.0199602 0.188442 0.0112641 0 0 0
-0.0199301 0.838826 0.0534669 0 0 0
-0.0199001 1.03602 -1.13136 0 0 0
-0.0199001 2.90153 -0.0138272 0 0 0
-0.0198801 0.977317 -1.4261 0 0 0
-0.01984 0.107515 -0.018075 0 0 0
-0.01981 0.0317059 -0.0156586 0 0 0
-0.0197702 1.03004 -1.14096 0 0 0
-0.0197702 3.19692 0.00518718 0 0 0
-0.0197401 2.20358 0.123082 0 0 0
-0.01969 0.28108 0.11421 0 0 0
-0.0195901 1.3028 -0.381878 0 0 0
-0.0195701 3.01774 -0.00272964 0 0 0
-0.0195501 0.5149 0.0924268 0 0 0
-0.0195401 -0.00417234 -0.00457389 0 0 0
-0.01951 0.490494 0.0948016 0 0 0
-0.01951 1.02206 -1.162 0 0 0
-0.0194302 2.07428 -0.138977 0 0 0
-0.0194101 0.768718 0.359489 0 0 0
-0.0193901 1.02602 -1.15425 0 0 0
-0.0193801 1.17237 -0.0979588 0 0 0
-0.0193801 1.22953 -0.753376 0 0 0
-0.0193701 1.24383 -0.599028 0 0 0
-0.0193501 2.1507 -0.0118394 0 0 0
-0.01934 0.012574 -0.00508854 0 0 0
-0.01932 1.22414 -0.744552 0 0 0
-0.01931 3.79506 0.0571435 0 0 0
-0.01928 2.16725 0.149843 0 0 0
-0.0192502 1.23003 -0.754451 0 0 0
-0.0192502 2.00027 -0.10093 0 0 0
-0.0192201 3.31353 0.0345299 0 0 0
-0.0192001 0.702707 -0.0390238 0 0 0
-0.0191901 1.57229 -0.0230368 0 0 0
-0.01916 1.22425 -0.745481 0 0 0
-0.01916 2.114 -0.215865 0 0 0
-0.01915 0.4988 -0.0289085 0 0 0
-0.01914 0.817664 0.0630658 0 0 0
-0.0191 3.08207 0.00221437 0 0 0
-0.0190401 0.961203 -1.12021 0 0 0
-0.0190001 1.21358 -0.655738 0 0 0
-0.0190001 1.22477 -0.728385 0 0 0
-0.01898 0.691457 -0.0515119 0 0 0
-0.01897 1.20158 -0.636842 0 0 0
-0.01896 2.01052 -0.106282 0 0 0
-0.0189002 1.28109 -0.321452 0 0 0
-0.0188701 2.00792 -0.11361 0 0 0
-0.01875 0.666314 0.181668 0 0 0
-0.01875 0.768283 0.359945 0 0 0
-0.0186801 0.464998 0.0972046 0 0 0
-0.0185599 1.27442 -0.308342 0 0 0
-0.0185001 1.23385 -0.569241 0 0 0
-0.0184901 0.96522 -1.53816 0 0 0
-0.0183899 3.13037 -0.00170034 0 0 0
-0.0183601 0.696504 0.142682 0 0 0
-0.0183501 2.8894 -0.12041 0 0 0
-0.0183401 0.850522 0.046289 0 0 0
-0.0183401 3.81428 0.061915 0 0 0
-0.0183201 1.19926 -0.70704 0 0 0
-0.0183201 1.2488 -0.566494 0 0 0
-0.0183101 2.8697 -0.129387 0 0 0
-0.0183101 2.93013 -0.112463 0 0 0
-0.01828 1.23696 -0.169536 0 0 0
-0.01827 2.93378 -0.00572903 0 0 0
-0.01825 1.2302 -0.737078 0 0 0
-0.01825 1.23059 -0.737804 0 0 0
-0.01824 1.23479 0.0738545 0 0 0
-0.0182099 0.584771 -0.0218977 0 0 0
-0.0182002 1.64499 -0.0318861 0 0 0
-0.0181301 2.04838 -0.132378 0 0 0
-0.01807 0.650269 0.19357 0 0 0
-0.01807 3.14846 -0.0128312 0 0 0
-0.0180399 1.20522 -0.73346 0 0 0
-0.0180302 1.2598 -0.284913 0 0 0
-0.0180201 2.09128 -0.202262 0 0 0
-0.0179601 1.27428 -0.309513 0 0 0
-0.01793 1.26696 -0.297619 0 0 0
-0.01792 1.12765 -0.00215172 0 0 0
-0.0178699 2.83474 -0.129903 0 0 0
-0.0178401 1.27221 0.0992378 0 0 0
-0.0178101 0.936423 0.0381082 0 0 0
-0.0177901 0.0451386 -0.00438749 0 0 0
-0.01776 1.22773 -0.602116 0 0 0
-0.0176701 1.21677 -0.635573 0 0 0
-0.0176501 3.31751 0.0298711 0 0 0
-0.0176201 0.985621 -1.55347 0 0 0
-0.01759 2.88343 -0.0961412 0 0 0
-0.01759 2.93308 -0.00422617 0 0 0
-0.01754 3.31761 0.029372 0 0 0
-0.0175099 0.970298 -1.13109 0 0 0
-0.0175002 -0.0326017 0.00764891 0 0 0
-0.0174901 1.25196 -0.272875 0 0 0
-0.0174801 1.71462 -0.0927405 0 0 0
-0.0174701 1.47962 -0.0365482 0 0 0
-0.0173399 0.993407 0.0723066 0 0 0
-0.0173299 0.649472 -0.0369008 0 0 0
-0.0173299 0.935071 -0.0658717 0 0 0
-0.0172701 1.7152 -0.0762831 0 0 0
-0.0172601 1.38792 -0.0683901 0 0 0
-0.0172501 1.2492 -0.320376 0 0 0
-0.0172501 2.94558 -0.0133559 0 0 0
-0.01723 1.23517 -0.269 0 0 0
-0.0172 1.09824 -0.980214 0 0 0
-0.0171599 3.10084 0.00133083 0 0 0
-0.0171401 0.943965 -0.0613986 0 0 0
-0.0171101 0.84785 0.044531 0 0 0
-0.0170901 -0.0168859 0.00907384 0 0 0
-0.0170901 2.07369 -0.169735 0 0 0
-0.01705 1.26762 -0.295712 0 0 0
-0.01699 0.709762 -0.0604907 0 0 0
-0.01699 1.21332 -0.63801 0 0 0
-0.01699 3.33657 0.0269607 0 0 0
-0.0169601 0.878955 -0.0512889 0 0 0
-0.0169101 1.22057 -0.0771029 0 0 0
-0.0168901 0.619407 -0.0289554 0 0 0
-0.01688 3.56441 0.0599584 0 0 0
-0.01683 1.23311 -0.58855 0 0 0
-0.01682 0.22896 0.116784 0 0 0
-0.01682 0.333969 -0.0182238 0 0 0
-0.0168002 0.0291421 -0.00576529 0 0 0
-0.0167902 0.694679 -0.0373377 0 0 0
-0.0167501 3.75187 0.0753423 0 0 0
-0.0167301 1.29394 -0.35536 0 0 0
-0.01667 3.17385 -0.00451495 0 0 0
-0.01664 1.20682 -0.626937 0 0 0
-0.01664 1.26647 -0.367888 0 0 0
-0.0166102 0.0612172 -0.00417906 0 0 0
-0.0166001 1.40391 -0.0667125 0 0 0
-0.0165801 3.79507 0.0576634 0 0 0
-0.0165501 0.582493 0.078194 0 0 0
-0.0165501 1.21054 -0.165743 0 0 0
-0.01647 1.73858 -0.1006 0 0 0
-0.0163701 3.79484 0.0574211 0 0 0
-0.01634 0.730331 -0.0535253 0 0 0
-0.01629 1.24168 -0.258152 0 0 0
-0.0162799 1.19303 -0.675404 0 0 0
-0.0162602 2.9444 -0.0050379 0 0 0
-0.0162401 1.75828 -0.0863425 0 0 0
-0.0162401 3.38643 -0.000148583 0 0 0
-0.0162301 0.664166 0.161434 0 0 0
-0.0162301 0.870668 -0.0563055 0 0 0
-0.0162301 1.25828 0.0976417 0 0 0
-0.0161901 1.23646 -0.730252 0 0 0
-0.01618 1.22493 -0.694581 0 0 0
-0.01614 2.19006 0.169013 0 0 0
-0.0161099 1.44081 -0.0428349 0 0 0
-0.0160902 1.23614 -0.566717 0 0 0
-0.0160701 1.13912 0.0039487 0 0 0
-0.0160401 1.23599 -0.729087 0 0 0
-0.016 0.401411 0.110889 0 0 0
-0.01598 2.86505 -0.118005 0 0 0
-0.01598 3.77521 0.0563253 0 0 0
-0.01595 1.2298 -0.719361 0 0 0
-0.0159102 0.332304 0.105416 0 0 0
-0.0159102 0.398847 -0.0320152 0 0 0
-0.0159001 1.21822 -0.702352 0 0 0
-0.0158701 1.25577 -0.55798 0 0 0
-0.0158601 0.967117 -0.062406 0 0 0
-0.0158501 0.00159802 0.151085 0 0 0
-0.0158401 1.30067 -0.406442 0 0 0
-0.01582 2.17805 0.156896 0 0 0
-0.01578 2.92185 -0.00870419 0 0 0
-0.01577 0.680396 0.151043 0 0 0
-0.01577 1.22059 -0.592381 0 0 0
-0.0157499 2.96572 0.000665963 0 0 0
-0.0157301 0.480441 0.100806 0 0 0
-0.0157101 0.0786571 -0.00311662 0 0 0
-0.0157001 0.886204 0.0558733 0 0 0
-0.0156801 1.72815 -0.104659 0 0 0
-0.01563 2.8763 -0.119027 0 0 0
-0.0155899 0.755649 0.355512 0 0 0
-0.0155799 1.53409 -0.0245869 0 0 0
-0.0155702 2.8767 -0.121043 0 0 0
-0.0155501 0.0511165 -0.0184958 0 0 0
-0.0155501 1.23531 -0.727774 0 0 0
-0.0155401 0.310967 -0.0286452 0 0 0
-0.0155101 0.0850502 0.16086 0 0 0
-0.0155101 1.01628 0.0706158 0 0 0
-0.01545 1.24504 -0.226965 0 0 0
-0.01545 1.26767 -0.322433 0 0 0
-0.01543 0.321432 -0.0214251 0 0 0
-0.0153902 0.413568 -0.0320208 0 0 0
-0.0153801 2.97726 0.0013967 0 0 0
-0.0153701 0.636492 0.0881099 0 0 0
-0.0153401 1.22815 -0.162948 0 0 0
-0.0153101 1.28571 -0.351036 0 0 0
-0.01529 1.2446 0.0983783 0 0 0
-0.01528 1.21194 -0.666965 0 0 0
-0.0152299 0.702151 -0.0479298 0 0 0
-0.0152102 2.2114 0.132344 0 0 0
-0.0152001 0.174499 0.0210984 0 0 0
-0.0151701 0.101103 -0.00550144 0 0 0
-0.0151701 1.21819 -0.645599 0 0 0
-0.0151401 0.36517 -0.016197 0 0 0
-0.0151401 1.24314 -0.555543 0 0 0
-0.0151401 3.73976 0.0639349 0 0 0
-0.01508 2.01697 -0.116435 0 0 0
-0.01506 0.201609 0.117648 0 0 0
-0.01506 0.269461 -0.0253994 0 0 0
-0.01506 2.89489 -0.0956512 0 0 0
-0.0150001 1.26819 -0.344249 0 0 0
-0.0149801 1.36707 -0.0722384 0 0 0
-0.0149701 1.32545 -0.0206714 0 0 0
-0.0149601 3.13716 0.00986167 0 0 0
-0.01495 1.23113 -0.704616 0 0 0
-0.01495 1.24407 -0.283828 0 0 0
-0.01495 2.82789 -0.121904 0 0 0
-0.01494 2.85405 -0.11723 0 0 0
-0.01492 1.28208 -0.370665 0 0 0
-0.01489 1.21266 -0.618575 0 0 0
-0.0148602 1.23647 -0.543712 0 0 0
-0.0148401 1.2048 -0.677811 0 0 0
-0.0148201 0.246269 -0.0301129 0 0 0
-0.0148001 1.24572 -0.328953 0 0 0
-0.01478 1.21919 -0.629218 0 0 0
-0.01478 2.01968 -0.112277 0 0 0
-0.01473 1.0264 0.0644916 0 0 0
-0.0147099 1.06386 0.0240715 0 0 0
-0.0146902 2.82789 -0.121634 0 0 0
-0.0146801 1.22812 -0.234932 0 0 0
-0.01455 1.22733 -0.751609 0 0 0
-0.0145299 0.0677916 -0.0179412 0 0 0
-0.0144401 0.75477 0.357313 0 0 0
-0.01443 1.26109 -0.308461 0 0 0
-0.0143402 1.22001 -0.612268 0 0 0
-0.0143301 1.20657 -0.609078 0 0 0
-0.0143201 3.57499 0.0603491 0 0 0
-0.01424 1.28238 0.00323863 0 0 0
-0.01424 3.38207 0.0126062 0 0 0
-0.01424 3.8445 0.0640613 0 0 0
-0.01423 1.08006 0.00125009 0 0 0
-0.01423 1.21806 -0.185055 0 0 0
-0.0142 1.26118 -0.30941 0 0 0
-0.01419 1.75432 -0.106785 0 0 0
-0.0140901 0.65588 0.0817927 0 0 0
-0.01405 1.1033 -2.67308e-05 0 0 0
-0.01403 0.07117 -0.00535474 0 0 0
-0.01401 1.28157 -0.0465024 0 0 0
-0.0139902 0.970473 -1.49165 0 0 0
-0.0139201 0.0632832 0.155701 0 0 0
-0.01385 1.21485 -0.20717 0 0 0
-0.01383 0.466272 -0.0340392 0 0 0
-0.0137901 1.21349 -0.601956 0 0 0
-0.0137701 0.528762 0.087562 0 0 0
-0.0137301 1.27515 -0.358737 0 0 0
-0.01368 1.26807 -0.34708 0 0 0
-0.0136001 0.878672 0.0665148 0 0 0
-0.0135801 1.26136 -0.332439 0 0 0
-0.0135701 3.8241 0.0588978 0 0 0
-0.01352 1.25406 -0.296674 0 0 0
-0.0134501 1.28494 0.110262 0 0 0
-0.0134101 1.5577 -0.0189192 0 0 0
-0.0134001 2.21978 0.149023 0 0 0
-0.01336 1.21303 -0.267802 0 0 0
-0.01333 1.21707 -0.660812 0 0 0
-0.01331 3.00239 -0.000630058 0 0 0
-0.0132999 2.05933 -0.137433 0 0 0
-0.0132801 1.74424 -0.0886297 0 0 0
-0.0132701 3.06133 0.00612721 0 0 0
-0.0132301 1.18452 -0.163925 0 0 0
-0.0132101 0.630576 0.0733772 0 0 0
-0.0132101 1.26096 -0.335604 0 0 0
-0.0132 0.56977 0.0793808 0 0 0
-0.01317 1.10074 -0.00673392 0 0 0
-0.0131102 2.83612 -0.109997 0 0 0
-0.0130901 0.772674 0.0275628 0 0 0
-0.0130701 1.20101 -0.186094 0 0 0
-0.0130501 0.956048 -1.13119 0 0 0
-0.0130501 3.12001 0.00315141 0 0 0
-0.01302 0.863286 -0.0619435 0 0 0
-0.01302 3.02357 -0.000968579 0 0 0
-0.01298 0.0260252 0.146701 0 0 0
-0.01297 1.03412 -1.13771 0 0 0
-0.0129399 1.30444 -0.35536 0 0 0
-0.0129301 3.59997 0.00812759 0 0 0
-0.0129201 2.87275 -0.109324 0 0 0
-0.0128801 1.22217 -0.220874 0 0 0
-0.0128801 1.30632 -0.395342 0 0 0
-0.01283 1.28404 -0.333292 0 0 0
-0.0128 1.23497 -0.710027 0 0 0
-0.0127602 0.0928583 -0.0193887 0 0 0
-0.0127301 1.58366 -0.0209378 0 0 0
-0.01266 3.09134 0.00466136 0 0 0
-0.01264 3.32683 0.0329091 0 0 0
-0.0126 0.946721 0.0545567 0 0 0
-0.0125601 3.32691 0.0325499 0 0 0
-0.01248 3.3078 0.0322596 0 0 0
-0.0124102 0.926339 0.0412524 0 0 0
-0.0124002 3.04967 0.00992545 0 0 0
-0.0123501 0.839511 -0.0721027 0 0 0
-0.01232 3.15149 0.00157129 0 0 0
-0.01229 2.82395 -0.121255 0 0 0
-0.0122302 1.23949 -0.369051 0 0 0
-0.0122302 3.03406 -0.00132892 0 0 0
-0.0122101 1.24291 -0.553555 0 0 0
-0.0122001 3.80437 0.0611113 0 0 0
-0.0121701 3.37198 0.0108205 0 0 0
-0.01213 0.0504529 0.00572854 0 0 0
-0.01211 2.8394 -0.122194 0 0 0
-0.0120502 1.22492 -0.618257 0 0 0
-0.0120201 0.511244 -0.0254377 0 0 0
-0.0120001 3.784 0.0591974 0 0 0
-0.01194 3.80417 0.0608388 0 0 0
-0.01192 1.30957 0.1111 0 0 0
-0.0118501 0.671058 -0.0507556 0 0 0
-0.0118501 3.0396 0.0103097 0 0 0
-0.0118301 1.19057 -0.175692 0 0 0
-0.01177 0.671995 0.0641507 0 0 0
-0.01176 1.25465 -0.3208 0 0 0
-0.01174 0.749167 0.037657 0 0 0
-0.0116701 3.40074 0.00623153 0 0 0
-0.0116601 0.623739 0.0892767 0 0 0
-0.0116601 2.02792 -0.123021 0 0 0
-0.0116501 0.209255 0.106587 0 0 0
-0.01161 1.0119 -1.18112 0 0 0
-0.01158 1.29627 -0.350935 0 0 0
-0.01157 1.26045 -0.595734 0 0 0
-0.01157 1.36121 -0.0616495 0 0 0
-0.0115499 1.26793 -0.413155 0 0 0
-0.0115201 0.983573 -1.54313 0 0 0
-0.0114801 3.39644 0.00049606 0 0 0
-0.0114701 1.28925 -0.344238 0 0 0
-0.0114701 2.98657 0.00675449 0 0 0
-0.01143 1.34842 -0.060463 0 0 0
-0.01141 1.14935 -0.00163459 0 0 0
-0.01141 1.26131 -0.360092 0 0 0
-0.0113101 1.23823 -0.533793 0 0 0
-0.0112801 1.39712 -0.0564829 0 0 0
-0.0112701 0.975379 -1.5753 0 0 0
-0.01125 0.314345 0.0995372 0 0 0
-0.01123 0.611767 0.0922715 0 0 0
-0.01122 1.25425 -0.348315 0 0 0
-0.0111001 3.37644 0.000316642 0 0 0
-0.0110099 1.21135 -0.674022 0 0 0
-0.0110002 0.24946 0.106348 0 0 0
-0.0109701 0.969921 -1.50674 0 0 0
-0.01086 1.36808 -0.0482964 0 0 0
-0.01086 2.1235 -0.228326 0 0 0
-0.01086 2.20023 0.17798 0 0 0
-0.0108399 1.76666 -0.100306 0 0 0
-0.01074 0.487809 -0.0279134 0 0 0
-0.0106599 1.23259 -0.328431 0 0 0
-0.0106401 1.24767 -0.309442 0 0 0
-0.0105901 3.57009 0.0511373 0 0 0
-0.01052 1.51198 -0.0120676 0 0 0
-0.0104999 1.02557 -1.14485 0 0 0
-0.0104601 1.24747 -0.309934 0 0 0
-0.0104601 1.29282 -0.389994 0 0 0
-0.0104101 1.0323 -1.13678 0 0 0
-0.01038 0.955627 -0.0605865 0 0 0
-0.01033 1.29788 -0.392321 0 0 0
-0.0103199 0.451425 0.0973323 0 0 0
-0.0102901 1.23257 -0.546963 0 0 0
-0.0102401 1.41524 -0.0340422 0 0 0
-0.01021 0.67742 0.137232 0 0 0
-0.01021 2.86118 -0.109495 0 0 0
-0.01017 2.99689 0.00656259 0 0 0
-0.0101299 1.2403 -0.298408 0 0 0
-0.0101001 1.23716 -0.529874 0 0 0
-0.0100901 1.30313 -0.056027 0 0 0
-0.00999999 2.02495 -0.124692 0 0 0
-0.00995994 3.00732 0.00621159 0 0 0
-0.00989008 0.981484 -1.5633 0 0 0
-0.00988007 0.00219342 0.00732327 0 0 0
-0.00986004 1.23798 -0.515644 0 0 0
-0.00980997 3.01786 0.00617228 0 0 0
-0.00979996 0.349376 0.106264 0 0 0
-0.00978994 3.74039 0.0580012 0 0 0
-0.00977993 1.20995 -0.199911 0 0 0
-0.00970006 1.31267 -0.0233254 0 0 0
-0.00969005 1.25479 -0.37078 0 0 0
-0.00968003 1.24395 -0.524673 0 0 0
-0.00967002 1.02586 -1.14434 0 0 0
-0.00962997 3.33487 0.0441638 0 0 0
-0.00961995 0.359589 -0.0200255 0 0 0
-0.00961995 1.28581 -0.378226 0 0 0
-0.00960994 1.24951 -0.187656 0 0 0
-0.00960016 2.03082 -0.140272 0 0 0
-0.00958014 0.867133 0.0463028 0 0 0
-0.00955009 1.28982 -0.0561364 0 0 0
-0.00953007 1.26392 -0.0561577 0 0 0
-0.00952005 0.842778 0.0332272 0 0 0
-0.00950003 0.634244 -0.0305001 0 0 0
-0.00948 0.0974161 -0.00483001 0 0 0
-0.00943994 3.08197 0.00792369 0 0 0
-0.00942016 2.18108 0.158998 0 0 0
-0.00933003 0.974731 -1.45613 0 0 0
-0.00933003 3.02851 0.00737388 0 0 0
-0.00925994 1.02197 -1.1579 0 0 0
-0.00924015 0.911238 -0.0600012 0 0 0
-0.00923014 3.85401 0.0666911 0 0 0
-0.00919008 1.14314 0.00460074 0 0 0
-0.00918007 1.01678 -1.16874 0 0 0
-0.00914001 0.642709 -0.0328315 0 0 0
-0.00913 0.297645 -0.0304447 0 0 0
-0.00909996 2.93761 -0.100834 0 0 0
-0.00902009 0.18923 0.117538 0 0 0
-0.00900006 1.2863 -0.401752 0 0 0
-0.00899005 0.662854 0.136829 0 0 0
-0.00896001 3.77134 -0.0167392 0 0 0
-0.00892997 2.0491 -0.13315 0 0 0
-0.00884008 0.591932 0.0717026 0 0 0
-0.00879002 1.33471 -0.0356256 0 0 0
-0.00879002 3.77073 -0.0167456 0 0 0
-0.00878 3.37737 0.0184471 0 0 0
-0.00872016 1.26312 -0.379494 0 0 0
-0.00870013 1.29804 -0.369627 0 0 0
-0.00869012 1.21875 -0.275423 0 0 0
-0.00868011 0.205778 0.0079555 0 0 0
-0.00868011 1.25507 -0.371858 0 0 0
-0.00866008 3.51361 0.00307302 0 0 0
-0.00864005 1.11342 -0.00532079 0 0 0
-0.0086 0.651231 0.159918 0 0 0
-0.00856996 1.23403 -0.673505 0 0 0
-0.00855994 0.410692 -0.0295307 0 0 0
-0.00853014 0.44313 -0.0386916 0 0 0
-0.00853014 1.24925 -0.532188 0 0 0
-0.00847006 1.24034 -0.320399 0 0 0
-0.00846004 2.39182 -0.0183547 0 0 0
-0.00844002 1.21775 -0.234971 0 0 0
-0.00838995 0.460876 -0.0478365 0 0 0
-0.00838995 2.08886 -0.211858 0 0 0
-0.00836015 1.27486 -0.402112 0 0 0
-0.00827003 1.3357 -0.0616463 0 0 0
-0.00826001 1.02957 0.0403736 0 0 0
-0.00826001 1.24819 -0.359609 0 0 0
-0.00825 1.25667 -0.34667 0 0 0
-0.00820994 0.543641 0.0839473 0 0 0
-0.00819993 1.23925 -0.699592 0 0 0
-0.00816011 0.42595 -0.0312312 0 0 0
-0.00810003 3.5258 0.0228718 0 0 0
-0.00805998 0.320316 -0.0236871 0 0 0
-0.00805998 1.2198 -0.256631 0 0 0
-0.00805998 1.26803 -0.563062 0 0 0
-0.00804996 1.34225 -0.048937 0 0 0
-0.00802994 1.23371 -0.358461 0 0 0
-0.00799012 1.23917 -0.699552 0 0 0
-0.00799012 1.25106 -0.543209 0 0 0
-0.00796008 1.24294 -0.523623 0 0 0
-0.00792003 2.97133 0.00448476 0 0 0
-0.00785995 1.5394 -0.0161008 0 0 0
-0.00784016 1.24165 -0.320856 0 0 0
-0.00778008 3.83339 0.062335 0 0 0
-0.00776005 1.24142 -0.347159 0 0 0
-0.00774002 0.100969 -0.0327942 0 0 0
-0.00765014 1.03509 0.0216105 0 0 0
-0.0076201 2.21928 0.132927 0 0 0
-0.00760007 3.81418 0.0586237 0 0 0
-0.00759006 1.20857 -0.241337 0 0 0
-0.00757003 1.24628 -0.344908 0 0 0
-0.00755 0.477054 -0.030336 0 0 0
-0.00755 3.78275 -0.0163694 0 0 0
-0.00751996 1.2106 -0.223085 0 0 0
-0.00750995 1.21933 -0.170831 0 0 0
-0.00748014 1.29958 -0.34458 0 0 0
-0.00748014 3.10052 0.00864776 0 0 0
-0.00742006 2.98552 -0.0936621 0 0 0
-0.00739002 3.06791 0.0110363 0 0 0
-0.00729012 1.23937 -0.69994 0 0 0
-0.0072701 1.30263 -0.38209 0 0 0
-0.00725007 1.42862 -0.0403922 0 0 0
-0.00723004 0.291672 0.10449 0 0 0
-0.00717998 1.31385 -0.0475243 0 0 0
-0.00716996 3.50251 0.00340699 0 0 0
-0.00711012 0.8979 0.048655 0 0 0
-0.0071001 3.00197 0.0148163 0 0 0
-0.00708008 0.844891 0.00624794 0 0 0
-0.00706005 1.23692 -0.518986 0 0 0
-0.00706005 1.32834 -0.049323 0 0 0
-0.00705004 0.0683132 0.00483548 0 0 0
-0.00702 1.09234 0.00238878 0 0 0
-0.00700998 0.608766 0.0456271 0 0 0
-0.00697994 3.01244 0.014906 0 0 0
-0.00690007 1.28975 0.114852 0 0 0
-0.00681996 1.35593 -0.0518242 0 0 0
-0.00679016 0.7527 0.0430844 0 0 0
-0.00669002 0.36248 0.102222 0 0 0
-0.00669002 1.2921 -0.0122101 0 0 0
-0.00669002 2.09884 -0.220554 0 0 0
-0.00667 1.24254 -0.38417 0 0 0
-0.00665999 1.26561 0.104159 0 0 0
-0.00664997 0.11593 0.187804 0 0 0
-0.00662994 1.28327 -0.397034 0 0 0
-0.00661016 1.204 -0.233775 0 0 0
-0.00661016 3.79505 0.0613237 0 0 0
-0.00653005 1.27779 -0.0562623 0 0 0
-0.00647998 3.02295 0.015946 0 0 0
-0.00645995 0.491661 0.0922736 0 0 0
-0.00644994 1.24593 -0.533242 0 0 0
-0.00644016 1.72798 -0.0930803 0 0 0
-0.00643015 1.19637 -0.199583 0 0 0
-0.00642014 2.03532 -0.130894 0 0 0
-0.00637007 0.642347 0.151735 0 0 0
-0.00634003 1.19684 -0.222419 0 0 0
-0.00626016 0.999629 -1.14631 0 0 0
-0.00626016 1.24879 -0.515921 0 0 0
-0.00625014 0.498991 0.0817997 0 0 0
-0.00625014 1.30703 -0.0370852 0 0 0
-0.00621009 0.684683 0.140808 0 0 0
-0.00613999 0.336757 0.0956217 0 0 0
-0.00613999 3.79481 0.0612509 0 0 0
-0.00609016 0.382812 -0.0229726 0 0 0
-0.00607014 1.23229 -0.0722898 0 0 0
-0.00600004 1.37595 -0.0652051 0 0 0
-0.00595999 0.578237 0.0711591 0 0 0
-0.00591016 3.05654 0.0104871 0 0 0
-0.00590014 0.615066 0.0752248 0 0 0
-0.00590014 0.963299 0.0452698 0 0 0
-0.00585008 1.29955 -0.025613 0 0 0
-0.00584006 1.24245 -0.506267 0 0 0
-0.00580001 3.03349 0.0161664 0 0 0
-0.00579 1.11247 -0.00628113 0 0 0
-0.00576997 0.604441 0.0613727 0 0 0
-0.0056901 1.26161 0.0223922 0 0 0
-0.00568008 1.07192 0.0084752 0 0 0
-0.00563002 1.20395 -0.211174 0 0 0
-0.00553012 1.26036 -0.552882 0 0 0
-0.0055201 1.23849 -0.680728 0 0 0
-0.0055201 3.51978 0.0116482 0 0 0
-0.00549006 1.2547 0.0951542 0 0 0
-0.00547004 0.58284 0.0431258 0 0 0
-0.00547004 2.04073 -0.113226 0 0 0
-0.00547004 2.22473 0.179896 0 0 0
-0.00546002 0.55641 0.0811912 0 0 0
-0.00538993 3.04472 0.0166937 0 0 0
-0.00535011 1.22865 -0.270549 0 0 0
-0.00535011 3.39465 0.0127179 0 0 0
-0.00531006 3.16397 0.00471197 0 0 0
-0.00519013 1.26071 -0.40212 0 0 0
-0.00516009 0.662864 0.0727955 0 0 0
-0.00514007 1.26975 -0.392785 0 0 0
-0.00509 1.26968 -0.598997 0 0 0
-0.00497007 1.24434 -0.0739037 0 0 0
-0.00496006 1.05104 0.016347 0 0 0
-0.00492001 3.76478 -0.00772747 0 0 0
-0.00486016 1.25313 -0.537827 0 0 0
-0.00482011 1.32173 -0.0379713 0 0 0
-0.0048101 3.01404 -0.0656619 0 0 0
-0.00474 1.26337 -0.384391 0 0 0
-0.00472999 0.632825 0.0811212 0 0 0
-0.00471997 0.731349 0.0249198 0 0 0
-0.00467014 0.664106 0.0506873 0 0 0
-0.0046401 3.62976 0.0190903 0 0 0
-0.00463009 1.27756 -0.428135 0 0 0
-0.00460005 1.24463 -0.673084 0 0 0
-0.00460005 2.06651 -0.17461 0 0 0
-0.00459003 1.29733 0.112121 0 0 0
-0.00454998 1.22033 -0.171901 0 0 0
-0.00451994 0.471053 0.101498 0 0 0
-0.00445008 0.609206 0.0456217 0 0 0
-0.00444007 1.21257 -0.0797069 0 0 0
-0.00442004 0.935165 -0.0624206 0 0 0
-0.00436997 0.470549 -0.0184434 0 0 0
-0.00436997 0.731772 0.0256443 0 0 0
-0.00431013 2.22755 0.142754 0 0 0
-0.00423002 0.869707 -0.0514754 0 0 0
-0.00418997 1.29788 -0.438603 0 0 0
-0.00415015 1.29383 -0.0388935 0 0 0
-0.00414014 3.75425 0.0623364 0 0 0
-0.00413013 2.23252 0.162507 0 0 0
-0.00412011 1.25815 -0.0472578 0 0 0
-0.00408006 3.11238 0.00815205 0 0 0
-0.00405002 1.20022 -0.169021 0 0 0
-0.00404 2.97011 -0.0784026 0 0 0
-0.00402999 2.11042 -0.223723 0 0 0
-0.00400996 0.64938 0.0740643 0 0 0
-0.00399995 0.444671 0.0996321 0 0 0
-0.00398994 0.503696 0.066998 0 0 0
-0.00388002 0.625933 0.0640979 0 0 0
-0.00384998 3.12331 0.00820647 0 0 0
-0.00383997 3.08226 0.0133268 0 0 0
-0.00377011 3.32909 0.00729134 0 0 0
-0.0037601 3.18877 0.0223628 0 0 0
-0.00367999 2.04898 -0.144252 0 0 0
-0.00366998 0.735777 0.0127456 0 0 0
-0.00366998 1.22768 -0.191385 0 0 0
-0.00365996 1.24446 0.104407 0 0 0
-0.00362015 1.24136 -0.402623 0 0 0
-0.00362015 3.70834 -0.00173782 0 0 0
-0.00361013 3.00158 -0.0703426 0 0 0
-0.00359011 2.22286 0.150685 0 0 0
-0.00351 1.38665 -0.060643 0 0 0
-0.00348997 1.24836 -0.418401 0 0 0
-0.00335002 1.06423 0.0201355 0 0 0
-0.00330997 0.648417 0.0485726 0 0 0
-0.00330997 1.26558 -0.40571 0 0 0
-0.00330997 3.2418 0.00304681 0 0 0
-0.00329995 2.06017 -0.157226 0 0 0
-0.00326014 3.82415 0.0611381 0 0 0
-0.00325012 3.51833 0.013313 0 0 0
-0.00316 1.28637 -0.026431 0 0 0
-0.00312996 2.79931 0.00414352 0 0 0
-0.00308013 1.22165 -0.0724313 0 0 0
-0.00294995 3.13554 0.0129949 0 0 0
-0.0028801 1.2724 -0.418019 0 0 0
-0.00287008 1.28009 0.116251 0 0 0
-0.00285006 1.22557 -0.0816309 0 0 0
-0.00279999 0.990237 0.0570224 0 0 0
-0.00274014 1.24255 -0.231481 0 0 0
-0.00272012 3.82396 0.0560461 0 0 0
-0.00267005 0.275652 0.105382 0 0 0
-0.00267005 1.2948 -0.425245 0 0 0
-0.00267005 3.09126 0.00974104 0 0 0
-0.00267005 3.77617 -0.00842796 0 0 0
-0.00262999 0.761287 0.0319738 0 0 0
-0.00257015 0.911623 0.0483991 0 0 0
-0.0025301 0.167986 0.0146102 0 0 0
-0.00243998 0.310073 -0.0292244 0 0 0
-0.00243998 1.27889 -0.385559 0 0 0
-0.00241995 3.69733 -0.00189321 0 0 0
-0.00238013 2.04317 -0.140322 0 0 0
-0.00231004 0.365382 -0.0211551 0 0 0
-0.00226998 0.118794 0.201745 0 0 0
-0.00223994 3.50894 0.0109649 0 0 0
-0.00221014 1.23713 -0.0110456 0 0 0
-0.00217009 0.566466 0.0740158 0 0 0
-0.00215006 0.90075 -0.0602408 0 0 0
-0.00206995 1.2427 -0.670594 0 0 0
-0.00201011 1.24344 0.0062114 0 0 0
-0.00200009 1.25244 0.015396 0 0 0
-0.00198007 0.656528 -0.0297565 0 0 0
-0.00194001 1.25328 -0.056539 0 0 0
-0.00186014 3.45682 0.0506811 0 0 0
-0.00181007 2.9424 -0.0999838 0 0 0
-0.00170994 1.29726 -0.322283 0 0 0
-0.00170994 2.06922 -0.172881 0 0 0
-0.0016501 2.04772 -0.149745 0 0 0
-0.0016501 3.00836 -0.0591612 0 0 0
-0.00164008 2.94964 -0.111449 0 0 0
-0.00156999 0.326766 0.103308 0 0 0
-0.00152993 3.63507 0.0280565 0 0 0
-0.0014801 3.02721 0.0175008 0 0 0
-0.00144005 0.528443 0.0836284 0 0 0
-0.00142002 1.25944 -0.0245228 0 0 0
-0.00136995 1.2714 0.0298752 0 0 0
-0.00135994 1.26621 -0.0134015 0 0 0
-0.00134015 1.20069 -0.178266 0 0 0
-0.0013001 0.711027 0.189306 0 0 0
-0.00121999 0.49001 0.0646249 0 0 0
-0.00114012 0.982679 -1.15697 0 0 0
-0.00114012 3.53763 0.0380164 0 0 0
-0.00101995 2.11862 -0.232747 0 0 0
-0.000880003 3.74817 -0.0392829 0 0 0
-0.000849962 0.978375 0.0533283 0 0 0
-0.000849962 1.27337 -0.026477 0 0 0
-0.000839949 2.77587 0.0466302 0 0 0
-0.000829935 1.27977 -0.407831 0 0 0
-0.00082016 0.133605 0.20558 0 0 0
-0.00082016 3.80425 0.0590995 0 0 0
-0.000810146 1.19826 -0.202253 0 0 0
-0.000790119 1.09989 -0.00666271 0 0 0
-0.000750065 3.30905 0.0448032 0 0 0
-0.000740051 0.376439 0.0937369 0 0 0
-0.000669956 0.535624 0.071143 0 0 0
-0.000659943 3.06288 0.0184843 0 0 0
-0.000610113 1.2701 -0.440604 0 0 0
-0.000560045 3.40588 0.0134955 0 0 0
-0.000540018 3.04053 0.0227403 0 0 0
-0.000530004 0.97075 -1.14189 0 0 0
-0.000509977 3.78655 0.0580544 0 0 0
-0.00048995 2.05401 -0.138639 0 0 0
-0.000460148 1.2799 -0.0148881 0 0 0
-0.000460148 3.02751 -0.0681808 0 0 0
-0.000440121 0.55321 0.074567 0 0 0
-0.000440121 2.23171 0.19091 0 0 0
-0.000430107 2.07322 -0.18254 0 0 0
-0.000420094 0.977877 0.053203 0 0 0
-0.000400066 3.62426 0.0281432 0 0 0
-0.000360012 1.2587 -0.498137 0 0 0
-0.000349999 3.1779 0.0204989 0 0 0
-0.000319958 1.21405 -0.0342789 0 0 0
-0.000309944 1.00246 -1.17572 0 0 0
-0.000299931 0.479797 0.0916095 0 0 0
-0.000270128 0.481883 0.0757504 0 0 0
-0.000250101 0.981218 -1.57042 0 0 0
-0.00022006 0.204626 0.117049 0 0 0
-0.000210047 3.54847 0.0356403 0 0 0
-0.00019002 0.839292 -0.0654747 0 0 0
-9.01222e-05 3.72869 0.0590584 0 0 0
-8.01086e-05 1.24786 -0.48732 0 0 0
-7.00951e-05 3.78626 0.0582211 0 0 0
0 1.25882 -0.391929 0 0 0
2.00272e-05 0.617081 0.0336639 0 0 0
7.98702e-05 3.61895 0.0364579 0 0 0
8.98838e-05 3.44916 0.00293843 0 0 0
0.000159979 0.015731 0.137522 0 0 0
0.000169992 1.24648 -0.0474798 0 0 0
0.000169992 2.06081 -0.153188 0 0 0
0.000210047 1.25239 -0.487982 0 0 0
0.00022006 2.88747 -0.0908587 0 0 0
0.000299931 0.945896 -0.0586483 0 0 0
0.000339985 0.0917854 0.184291 0 0 0
0.000360012 0.457137 -0.0364348 0 0 0
0.000370026 3.5853 0.106789 0 0 0
0.000419855 0.594499 0.0395474 0 0 0
0.00048995 1.27871 -0.478716 0 0 0
0.000540018 1.25299 0.116967 0 0 0
0.000560045 3.05129 0.020503 0 0 0
0.000570059 1.23927 -0.483909 0 0 0
0.000589848 0.0506864 0.146729 0 0 0
0.000649929 0.118788 0.193725 0 0 0
0.000699997 0.125016 0.214031 0 0 0
0.000750065 1.26333 -0.539801 0 0 0
0.00075984 3.55355 0.0413733 0 0 0
0.000789881 0.975365 -1.49941 0 0 0
0.000839949 1.25302 -0.472005 0 0 0
0.000849962 1.26755 -0.0389789 0 0 0
0.000849962 2.08693 -0.218518 0 0 0
0.00090003 3.10649 0.0163105 0 0 0
0.000959873 0.968684 -0.0612198 0 0 0
0.000959873 1.28365 -0.478504 0 0 0
0.00110984 1.28255 -0.36844 0 0 0
0.00110984 3.62928 0.0369862 0 0 0
0.00113988 3.53765 0.0391268 0 0 0
0.00116992 3.26031 -0.0130003 0 0 0
0.00119996 3.76304 0.0516276 0 0 0
0.00120997 3.81346 0.0629365 0 0 0
0.00124001 0.586703 0.062957 0 0 0
0.00127006 0.981757 -1.57027 0 0 0
0.00131989 3.57725 0.0969949 0 0 0
0.00134993 1.23974 0.117749 0 0 0
0.00137997 2.97911 -0.0824384 0 0 0
0.00141001 1.27197 -0.486367 0 0 0
0.00144005 3.07415 0.015722 0 0 0
0.00145006 0.716601 -0.0364582 0 0 0
0.00146985 0.952056 0.0464119 0 0 0
0.00146985 1.25065 -0.502171 0 0 0
0.0015099 3.47122 -0.0156819 0 0 0
0.00159001 0.923991 -0.0611476 0 0 0
0.00166988 3.6141 0.0293567 0 0 0
0.0016799 3.85396 0.0690606 0 0 0
0.00176001 3.42586 -0.00083575 0 0 0
0.00181985 1.02067 -1.13498 0 0 0
0.00193 1.29968 -0.478787 0 0 0
0.00198007 0.251482 -0.0179474 0 0 0
0.00198984 3.51389 0.0210771 0 0 0
0.0020299 0.33111 0.100153 0 0 0
0.00203991 2.95515 -0.0993204 0 0 0
0.00207996 0.873007 -0.0543111 0 0 0
0.00209999 0.993605 -1.60439 0 0 0
0.00212002 3.75134 0.0591658 0 0 0
0.00215006 0.393912 -0.0162761 0 0 0
0.00215983 2.07606 -0.207612 0 0 0
0.00223994 1.25274 -0.0383037 0 0 0
0.00229001 3.33464 -0.0046613 0 0 0
0.00241995 1.26903 -0.552792 0 0 0
0.00250006 1.25788 -0.479294 0 0 0
0.00251007 0.519468 0.0678532 0 0 0
0.00251985 1.26376 -0.488823 0 0 0
0.0025599 0.329049 -0.0172453 0 0 0
0.0025599 1.24635 -0.02573 0 0 0
0.00257993 1.2651 -0.428186 0 0 0
0.00260997 3.49288 0.0196668 0 0 0
0.00265002 1.29516 0.123299 0 0 0
0.00270987 3.02163 -0.0596321 0 0 0
0.00272989 0.9111 -0.0573423 0 0 0
0.00273991 3.29859 0.0424439 0 0 0
0.00276995 2.08655 -0.18025 0 0 0
0.00285006 0.565404 0.0655642 0 0 0
0.00291991 0.432969 0.10165 0 0 0
0.00291991 3.48244 0.0201579 0 0 0
0.00294995 3.50863 0.00858117 0 0 0
0.00301003 3.76768 -0.0465592 0 0 0
0.00303006 0.139691 0.216445 0 0 0
0.00303006 1.24169 -0.059051 0 0 0
0.00303984 1.2911 -0.466696 0 0 0
0.00304985 3.57563 0.0370643 0 0 0
0.00305986 3.53406 0.0220284 0 0 0
0.00306988 1.02825 -1.1277 0 0 0
0.0030899 3.12826 0.0166186 0 0 0
0.00310993 1.26447 -0.472925 0 0 0
0.00313997 0.749451 0.0134086 0 0 0
0.00317001 0.455706 0.0944773 0 0 0
0.00317001 1.00338 0.0626907 0 0 0
0.00319004 1.27519 -0.562997 0 0 0
0.00319004 3.6002 0.0144703 0 0 0
0.00321007 0.970177 -0.062394 0 0 0
0.00322986 1.30733 0.109446 0 0 0
0.00324988 0.986594 -1.57851 0 0 0
0.00324988 3.6467 0.0225481 0 0 0
0.00326991 3.46008 0.00131273 0 0 0
0.00337005 3.49868 0.00925709 0 0 0
0.00338983 1.29647 -0.48658 0 0 0
0.00339985 1.255 -0.523627 0 0 0
0.0034399 0.300574 -0.0331941 0 0 0
0.0034399 0.939123 0.052337 0 0 0
0.00344992 2.06772 -0.191978 0 0 0
0.00351 3.33362 0.0434307 0 0 0
0.00357985 0.300517 0.0897521 0 0 0
0.0036099 3.0351 -0.0838922 0 0 0
0.00361991 1.26162 -0.418592 0 0 0
0.00371003 3.79573 0.0623708 0 0 0
0.00373983 3.74038 -0.031994 0 0 0
0.00374985 0.844362 0.0290837 0 0 0
0.00375986 3.32307 0.0404299 0 0 0
0.00377989 1.26321 -0.466838 0 0 0
0.00379992 1.24423 -0.474457 0 0 0
0.00381994 -0.00194949 0.147978 0 0 0
0.00384998 1.24697 0.00508807 0 0 0
0.00386 3.68209 0.0576905 0 0 0
0.00387001 0.980014 -1.5862 0 0 0
0.00389004 0.728423 0.0274294 0 0 0
0.00392985 0.0695319 0.159677 0 0 0
0.00396991 1.30141 0.113734 0 0 0
0.00408006 3.28738 0.0421362 0 0 0
0.0041399 3.77564 0.0494696 0 0 0
0.00417995 0.132956 0.230305 0 0 0
0.00417995 0.981851 -1.59357 0 0 0
0.00419998 3.79556 0.0619488 0 0 0
0.00421 0.606741 0.0393557 0 0 0
0.00430989 1.23964 -0.0379412 0 0 0
0.00436997 1.03315 -1.11772 0 0 0
0.00437999 0.579926 0.0444753 0 0 0
0.00442004 0.14047 0.229983 0 0 0
0.00442004 3.54507 0.0170232 0 0 0
0.0044899 1.26913 -0.584582 0 0 0
0.00457001 1.27059 -0.478601 0 0 0
0.00461984 0.246678 0.100829 0 0 0
0.00464988 1.25539 0.015797 0 0 0
0.00465989 3.56439 0.0401669 0 0 0
0.00468993 0.105988 0.202261 0 0 0
0.00477004 3.15777 0.0107275 0 0 0
0.00486994 1.26326 -0.469457 0 0 0
0.00490999 1.01939 0.0746688 0 0 0
0.00492001 0.271792 -0.0178649 0 0 0
0.00504994 0.303188 0.0992205 0 0 0
0.00511002 0.390678 0.0920563 0 0 0
0.00514984 0.679905 -0.0303319 0 0 0
0.00515985 3.48789 0.0089343 0 0 0
0.00515985 3.75082 -0.013834 0 0 0
0.00522995 0.969669 -1.5151 0 0 0
0.00524998 1.2773 -0.515793 0 0 0
0.00531006 3.78095 -0.0016975 0 0 0
0.00535989 3.06451 0.0220415 0 0 0
0.00537991 3.36381 0.014465 0 0 0
0.00544 0.789217 -0.0452083 0 0 0
0.00547004 0.641664 0.064153 0 0 0
0.00550985 3.70213 0.0566 0 0 0
0.00554991 3.28835 0.034766 0 0 0
0.00555992 0.833163 -0.0761495 0 0 0
0.00559998 0.627595 0.0285537 0 0 0
0.00560999 3.60916 0.0400259 0 0 0
0.00566006 3.48759 0.00778092 0 0 0
0.00569987 0.219348 0.0920918 0 0 0
0.00575995 3.04573 -0.0571194 0 0 0
0.00577998 3.56064 0.0219267 0 0 0
0.00580001 1.26858 -0.570897 0 0 0
0.00582004 3.54367 0.0405298 0 0 0
0.00584006 1.08979 -0.00241811 0 0 0
0.00597 0.883231 0.0398811 0 0 0
0.00602984 3.1474 0.0104486 0 0 0
