ply
format ascii 1.0
comment VCGLIB generated
element vertex 868
property float x
property float y
property float z
property uchar red
property uchar green
property uchar blue
end_header
-0.286798 1.1201 -1.74207 0 0 0
-0.272472 1.12018 -1.69228 0 0 0
-0.223591 1.05996 -1.67466 0 0 0
-0.0885471 0.931726 -1.62368 0 0 0
-0.0850722 0.934028 -1.55874 0 0 0
-0.213625 1.05979 -1.62548 0 0 0
-0.204773 1.0541 -1.57109 0 0 0
-0.170527 1.01787 -1.48841 0 0 0
-0.169224 1.01165 -1.43894 0 0 0
-0.0636167 0.925613 -1.51282 0 0 0
-0.0297899 0.944902 -1.50354 0 0 0
-0.027708 0.979428 -1.43673 0 0 0
-0.190845 1.04366 -1.50667 0 0 0
-0.515976 1.82977 -1.45268 0 0 0
-0.146346 0.942862 -1.37635 0 0 0
-0.158492 1.00304 -1.37065 0 0 0
-0.131909 0.949433 -1.31776 0 0 0
-0.140947 0.998594 -1.31777 0 0 0
-0.0983665 0.987767 -1.32228 0 0 0
-0.212488 0.961351 -1.24901 0 0 0
-0.208137 0.973025 -1.24949 0 0 0
-0.140226 0.992879 -1.20271 0 0 0
-0.102582 0.964569 -1.2466 0 0 0
-0.101504 0.983657 -1.24894 0 0 0
-0.099213 0.988109 -1.18893 0 0 0
-0.0174276 1.01285 -1.17512 0 0 0
-0.0973293 1.00909 -1.13313 0 0 0
-0.0149319 1.0195 -1.14782 0 0 0
-0.0199098 1.03772 -1.13076 0 0 0
-0.0895207 1.07902 -0.993367 0 0 0
-0.0383458 1.07542 -1.00092 0 0 0
-0.0634506 1.09021 -0.938797 0 0 0
-0.0436396 1.08139 -0.955603 0 0 0
-0.0633191 1.11518 -0.927925 0 0 0
-0.0386692 1.11508 -0.94626 0 0 0
-0.147701 1.35611 -1.0535 0 0 0
-0.0965487 1.24745 -0.987967 0 0 0
-0.0780806 1.1919 -0.939096 0 0 0
-0.0856167 1.23413 -0.940696 0 0 0
-0.138757 1.31143 -1.00295 0 0 0
-0.136611 1.35448 -1.01533 0 0 0
-0.107539 1.32156 -0.997433 0 0 0
-0.0603545 1.12726 -0.892845 0 0 0
-0.0523861 1.1397 -0.886885 0 0 0
-0.0494738 1.15277 -0.816533 0 0 0
-0.0672558 1.18036 -0.882745 0 0 0
-0.0498591 1.18434 -0.881279 0 0 0
-0.0435551 1.18135 -0.81728 0 0 0
-0.0309448 1.19665 -0.759041 0 0 0
-0.0179454 1.22531 -0.741463 0 0 0
-0.0185798 1.20616 -0.690158 0 0 0
-0.0116169 1.23284 -0.695636 0 0 0
-0.0214721 1.20942 -0.630559 0 0 0
-0.0203917 1.2431 -0.619586 0 0 0
-0.0118399 1.24847 -0.569859 0 0 0
-0.00132462 1.25596 -0.506165 0 0 0
3.58643e-05 1.26178 -0.442114 0 0 0
0.00028634 1.29175 -0.448082 0 0 0
-0.945183 1.89159 -0.545753 0 0 0
-0.897917 1.8734 -0.541499 0 0 0
-0.830041 1.82786 -0.54744 0 0 0
-0.788482 1.82668 -0.541014 0 0 0
-0.856916 1.85743 -0.540766 0 0 0
-0.78767 1.85188 -0.543514 0 0 0
-0.893401 1.87084 -0.532045 0 0 0
-0.776105 1.81861 -0.522749 0 0 0
-0.830865 1.85722 -0.529522 0 0 0
-0.778894 1.85179 -0.529934 0 0 0
-0.634402 1.76422 -0.50817 0 0 0
-0.697405 1.82479 -0.505374 0 0 0
-0.654956 1.83363 -0.482284 0 0 0
-0.702009 1.82402 -0.457644 0 0 0
-0.651143 1.83801 -0.445935 0 0 0
-0.6574 1.84622 -0.425917 0 0 0
-0.588013 1.82515 -0.425002 0 0 0
-0.574129 1.86184 -0.422018 0 0 0
0.108904 1.36911 -2.03962 0 0 0
0.12184 1.26683 -1.91512 0 0 0
0.126543 1.29979 -1.92545 0 0 0
0.145574 1.32054 -1.94232 0 0 0
0.056207 1.13081 -1.86701 0 0 0
0.0867597 1.1365 -1.81128 0 0 0
0.0223871 1.01511 -1.67277 0 0 0
0.0475566 1.06484 -1.74146 0 0 0
0.0568055 1.10746 -1.74543 0 0 0
0.040566 1.05726 -1.6955 0 0 0
0.102023 1.19235 -1.85675 0 0 0
0.114079 1.24728 -1.8745 0 0 0
0.0951955 1.18349 -1.8248 0 0 0
0.0276062 1.01198 -1.62662 0 0 0
0.0236083 1.03635 -1.64844 0 0 0
0.82424 0.935033 -1.49484 0 0 0
0.426021 1.82746 -1.68034 0 0 0
1.03438 1.29971 -1.68543 0 0 0
1.01203 1.22976 -1.64062 0 0 0
0.0274331 1.00246 -1.16548 0 0 0
0.0119428 1.00125 -1.1489 0 0 0
0.0128862 1.27095 -0.512241 0 0 0
0.0117066 1.26162 -0.453089 0 0 0
0.0195129 1.28963 -0.495163 0 0 0
0.017161 1.30238 -0.442748 0 0 0
0.60381 1.86173 -0.625982 0 0 0
-1.32873 2.2668 -0.664117 0 0 0
-1.24734 2.25077 -0.694804 0 0 0
-1.33495 2.32911 -0.724292 0 0 0
-1.34559 2.34424 -0.729031 0 0 0
-1.20886 2.19809 -0.666672 0 0 0
-1.23099 2.24202 -0.684324 0 0 0
-1.01749 1.94465 -0.551733 0 0 0
-1.06633 2.00222 -0.570288 0 0 0
-1.02641 2.0016 -0.564862 0 0 0
-1.13101 2.07528 -0.621149 0 0 0
-1.19875 2.12341 -0.633657 0 0 0
-1.14767 2.11824 -0.630983 0 0 0
-1.12215 2.05092 -0.586955 0 0 0
-1.09001 2.06503 -0.606373 0 0 0
-1.08267 2.04439 -0.588877 0 0 0
-1.2672 2.18372 -0.631263 0 0 0
-1.31213 2.26103 -0.649547 0 0 0
-1.28262 2.24524 -0.642014 0 0 0
-1.31805 2.28725 -0.652864 0 0 0
-1.19096 2.17929 -0.656593 0 0 0
-0.416565 2.07152 -1.20552 0 0 0
-0.38481 2.14021 -1.17917 0 0 0
-0.396715 2.17359 -1.20421 0 0 0
-0.960669 1.92384 -0.548782 0 0 0
-0.914305 1.90924 -0.540605 0 0 0
-0.396494 2.62969 -0.590053 0 0 0
-0.20159 3.28163 -0.822071 0 0 0
-0.0517816 3.42295 -0.873565 0 0 0
0.10247 2.18431 -0.431185 0 0 0
0.163907 2.1853 -0.432727 0 0 0
-0.017334 0.0079533 -0.00246512 0 0 0
-0.0732083 0.0136493 0.0695184 0 0 0
-0.0523487 -0.00155052 0.0771496 0 0 0
-0.0158797 0.0711251 -0.00708647 0 0 0
-0.0204532 0.118747 -0.00282306 0 0 0
-0.0802965 0.0674035 0.0681191 0 0 0
-0.077237 0.130359 0.072997 0 0 0
-0.0361599 0.206528 -0.0456941 0 0 0
-0.0694155 0.268733 -0.051628 0 0 0
-0.0367717 0.237539 -0.0529951 0 0 0
-0.144813 0.311037 -0.0684747 0 0 0
-0.0989557 0.309266 -0.0482264 0 0 0
-0.0880176 0.393849 -0.0571291 0 0 0
-0.135877 0.258781 0.0673726 0 0 0
-0.0231063 0.18946 -0.020575 0 0 0
-0.0250752 0.257745 -0.0296986 0 0 0
-0.0830038 0.192575 0.0750094 0 0 0
-0.0994185 0.245844 0.0722895 0 0 0
-0.221033 0.330051 0.0100812 0 0 0
-0.207093 0.365602 0.00634316 0 0 0
-0.158937 0.377516 -0.0128356 0 0 0
-0.200358 0.318653 0.0441753 0 0 0
-0.146183 0.297664 0.0497905 0 0 0
-0.0827627 0.327596 -0.022371 0 0 0
-0.0191609 0.311137 -0.0216008 0 0 0
-0.0817663 0.390311 0.000929497 0 0 0
-0.0135113 0.379809 -0.023048 0 0 0
-0.0923681 0.324459 0.0700279 0 0 0
-0.0735722 0.385178 0.0550116 0 0 0
-0.142112 0.426844 -0.0578326 0 0 0
-0.0782613 0.427469 -0.0517201 0 0 0
-0.032692 0.443887 -0.0424923 0 0 0
-0.0598996 0.500598 -0.0483368 0 0 0
-0.0351782 0.503672 -0.0490383 0 0 0
-0.0451989 0.563907 -0.052785 0 0 0
-0.0708301 0.636407 -0.0519491 0 0 0
-0.0419604 0.641418 -0.0540683 0 0 0
-0.143939 0.419247 -0.0332699 0 0 0
-0.0854075 0.439487 -0.000409146 0 0 0
-0.0106669 0.440131 -0.0302008 0 0 0
-0.0604971 0.502313 -0.00660286 0 0 0
-0.0260832 0.504902 -0.0278296 0 0 0
-0.0668967 0.439942 0.0549468 0 0 0
-0.0681222 0.512377 0.059325 0 0 0
-0.0201839 0.492573 0.0780325 0 0 0
-0.0739568 0.564061 -0.00775808 0 0 0
-0.02802 0.564708 -0.0320676 0 0 0
-0.0766554 0.625398 -0.00779374 0 0 0
-0.020147 0.631071 -0.0322697 0 0 0
-0.0777528 0.558853 0.0539141 0 0 0
-0.00482632 0.57268 0.0669567 0 0 0
-0.0838302 0.633115 0.0501271 0 0 0
-0.00225663 0.630858 0.0615384 0 0 0
-0.0254732 0.694256 -0.0530137 0 0 0
-0.0618902 0.757504 -0.0761947 0 0 0
-0.0380517 0.757353 -0.0603507 0 0 0
-0.123773 0.8277 -0.118239 0 0 0
-0.0880797 0.810551 -0.110624 0 0 0
-0.0409943 0.811776 -0.129135 0 0 0
-0.0832052 0.873732 -0.122611 0 0 0
-0.100478 0.820054 -0.0650348 0 0 0
-0.0179532 0.804823 -0.0628111 0 0 0
-0.0854319 0.856458 -0.0743397 0 0 0
-0.0130521 0.886311 -0.0572996 0 0 0
-0.120219 0.752693 0.0295955 0 0 0
-0.0831753 0.688403 -0.00851969 0 0 0
-0.100737 0.771584 -0.00573748 0 0 0
-0.0912635 0.682718 0.0704806 0 0 0
-0.0925856 0.744857 0.0460433 0 0 0
-0.0150649 0.752831 0.0374337 0 0 0
-0.124186 0.805907 -0.00204678 0 0 0
-0.0978869 0.81183 -0.00961553 0 0 0
-0.0930689 0.880931 -0.0108919 0 0 0
-0.070276 0.813761 0.0457243 0 0 0
-0.0254272 0.826616 0.0511568 0 0 0
-0.0841238 0.880504 0.0449048 0 0 0
-0.0271991 0.87881 0.0611103 0 0 0
-0.0353435 0.00941412 0.127005 0 0 0
-0.0601954 0.0687126 0.106252 0 0 0
-0.0403042 0.0636141 0.129311 0 0 0
-0.0389548 0.131948 0.111372 0 0 0
-0.0135697 0.0776033 0.164378 0 0 0
-0.000865874 0.122183 0.198577 0 0 0
0.00291337 0.13357 0.220957 0 0 0
-0.0935592 0.194768 0.0900533 0 0 0
-0.0185857 0.202825 0.113295 0 0 0
-0.0688429 0.259996 0.0958319 0 0 0
-0.0264138 0.256876 0.110229 0 0 0
-0.0682528 0.314763 0.0961536 0 0 0
-0.0265997 0.319478 0.103602 0 0 0
-0.0582389 0.370461 0.0937789 0 0 0
-0.0258582 0.38171 0.102264 0 0 0
-0.0252287 0.450188 0.0967201 0 0 0
-0.0295561 0.503522 0.0954462 0 0 0
-0.0653099 0.5539 0.0963236 0 0 0
-0.0316306 0.558497 0.0905236 0 0 0
-0.0261177 0.61456 0.114471 0 0 0
-0.0283126 0.643207 0.174469 0 0 0
-0.101417 0.680804 0.10631 0 0 0
-0.009798 0.680766 0.139067 0 0 0
-0.0197124 0.684752 0.183325 0 0 0
-0.0795608 0.700938 0.246588 0 0 0
-0.038137 0.683677 0.227836 0 0 0
-0.0836842 0.753284 0.249854 0 0 0
-0.0522828 0.75419 0.239597 0 0 0
-0.100148 0.75384 0.30159 0 0 0
-0.0919979 0.803144 0.308553 0 0 0
-0.136887 0.767521 0.368116 0 0 0
-0.110399 0.763617 0.340348 0 0 0
-0.0246527 0.760775 0.36232 0 0 0
-0.130866 0.80619 0.362561 0 0 0
-0.112559 0.816538 0.345526 0 0 0
-0.00755836 1.25931 -0.382151 0 0 0
-0.0156709 1.25285 -0.322593 0 0 0
-0.0100981 1.29282 -0.378592 0 0 0
-0.00726682 1.29265 -0.332895 0 0 0
-0.0116255 1.21351 -0.260162 0 0 0
-0.0141098 1.24474 -0.261725 0 0 0
-0.00933493 1.20491 -0.192457 0 0 0
-0.0137718 1.23668 -0.189427 0 0 0
-0.250898 1.12648 0.0588264 0 0 0
-0.0200777 0.938586 -0.0605678 0 0 0
-0.0382233 0.988956 -0.0645881 0 0 0
-0.0406434 1.0608 -0.0570149 0 0 0
-0.0693781 1.14055 -0.0541095 0 0 0
-0.0414963 1.10828 -0.0643499 0 0 0
-0.133752 1.01442 0.0462281 0 0 0
-0.105765 0.934413 0.00631502 0 0 0
-0.0706713 1.01771 -0.00690748 0 0 0
-0.079045 0.944785 0.0576068 0 0 0
-0.022722 0.938789 0.0524553 0 0 0
-0.0820779 1.01154 0.0453796 0 0 0
-0.0257047 1.00226 0.0647295 0 0 0
-0.130652 1.12362 -0.00122028 0 0 0
-0.211202 1.07544 0.0625066 0 0 0
-0.145202 1.05941 0.0569437 0 0 0
-0.214086 1.12069 0.0484429 0 0 0
-0.147881 1.10704 0.0465094 0 0 0
-0.0798991 1.06231 -0.00595197 0 0 0
-0.0111609 1.06505 0.0148326 0 0 0
-0.0887267 1.13005 -0.0106487 0 0 0
-0.0171303 1.12666 0.00248106 0 0 0
-0.0856695 1.06065 0.0508155 0 0 0
-0.0347936 1.05211 0.048263 0 0 0
-0.0895617 1.12447 0.0478089 0 0 0
-0.0418917 1.11474 0.0392533 0 0 0
-0.390586 1.33535 -0.0752741 0 0 0
-0.438988 1.36736 -0.0804889 0 0 0
-0.400733 1.36541 -0.0821411 0 0 0
-0.333399 1.32898 -0.0701503 0 0 0
-0.273206 1.33391 -0.0533372 0 0 0
-0.341523 1.3588 -0.0662088 0 0 0
-0.275069 1.35461 -0.0500738 0 0 0
-0.254501 1.33134 -0.0292669 0 0 0
-0.26624 1.36434 -0.0303125 0 0 0
-0.0710739 1.18256 -0.106711 0 0 0
-0.0729262 1.16789 -0.0619486 0 0 0
-0.0325966 1.19197 -0.0721137 0 0 0
-0.069166 1.25931 -0.0592227 0 0 0
-0.0184676 1.24831 -0.0553407 0 0 0
-0.08892 1.37562 -0.110152 0 0 0
-0.0778272 1.29165 -0.0702867 0 0 0
-0.0285615 1.30967 -0.0582703 0 0 0
-0.0907116 1.37858 -0.076458 0 0 0
-0.0261925 1.36755 -0.0647619 0 0 0
-0.124376 1.18663 -0.00083886 0 0 0
-0.131653 1.25165 -0.00464703 0 0 0
-0.0934667 1.18553 -0.0147508 0 0 0
-0.0921256 1.2407 -0.0242031 0 0 0
0.000702498 1.25808 -0.00707774 0 0 0
-0.0852334 1.18288 0.0387032 0 0 0
-0.0339843 1.19192 0.0363248 0 0 0
-0.0886698 1.25046 0.0399616 0 0 0
-0.018759 1.25058 0.0501672 0 0 0
-0.208552 1.32236 -0.0193298 0 0 0
-0.14282 1.30542 -0.010577 0 0 0
-0.214995 1.35419 -0.0274278 0 0 0
-0.138366 1.36592 -0.00819173 0 0 0
-0.00838422 1.30455 -0.0223132 0 0 0
-0.0905553 1.37884 0.0196855 0 0 0
-0.0407855 1.37267 0.0164662 0 0 0
-0.0889948 1.31445 0.0363922 0 0 0
-0.0437056 1.31414 0.0555654 0 0 0
-0.0867708 1.37683 0.0266361 0 0 0
-0.0321136 1.36869 0.0507563 0 0 0
-0.52573 1.86845 -0.381621 0 0 0
-0.485835 1.86419 -0.357096 0 0 0
-0.477727 1.88091 -0.315308 0 0 0
-0.446446 1.89121 -0.274682 0 0 0
-0.351727 1.90155 -0.216156 0 0 0
-0.13523 1.50335 -0.0620837 0 0 0
-0.0762016 1.43821 -0.105223 0 0 0
-0.078014 1.50059 -0.10954 0 0 0
-0.0845584 1.42897 -0.0854667 0 0 0
-0.0317141 1.43692 -0.0532462 0 0 0
-0.0638197 1.49875 -0.0887626 0 0 0
-0.0448267 1.50221 -0.0594532 0 0 0
-0.135137 1.63249 -0.111152 0 0 0
-0.132996 1.56499 -0.0681552 0 0 0
-0.141077 1.6194 -0.0661654 0 0 0
-0.0867736 1.56163 -0.117019 0 0 0
-0.0860286 1.61921 -0.113201 0 0 0
-0.0742978 1.55354 -0.0913861 0 0 0
-0.0412937 1.55339 -0.0604865 0 0 0
-0.0302369 1.62598 -0.0699603 0 0 0
-0.1352 1.429 -0.00823668 0 0 0
-0.142979 1.49976 -0.00835281 0 0 0
-0.0904548 1.44304 0.0135972 0 0 0
-0.0365946 1.43621 -0.00901032 0 0 0
-0.0909598 1.5 0.0125467 0 0 0
-0.0317706 1.49908 -0.0083243 0 0 0
-0.126734 1.56074 -0.00734163 0 0 0
-0.13006 1.62591 -0.0128313 0 0 0
-0.0871896 1.56721 -0.000817946 0 0 0
-0.0244687 1.56293 -0.0234053 0 0 0
-0.0942637 1.61995 -0.0145195 0 0 0
-0.0299647 1.62024 -0.0261433 0 0 0
-0.152543 1.68553 -0.0534881 0 0 0
-0.158516 1.73092 -0.0484457 0 0 0
-0.0764551 1.68778 -0.109235 0 0 0
-0.0849468 1.74558 -0.110186 0 0 0
-0.0207643 1.73794 -0.105036 0 0 0
-0.0330722 1.68874 -0.0730438 0 0 0
-0.0143756 1.74482 -0.0881794 0 0 0
-0.123993 1.81414 -0.156942 0 0 0
-0.124769 1.86968 -0.157773 0 0 0
-0.145861 1.81193 -0.0644937 0 0 0
-0.185643 1.87886 -0.0670592 0 0 0
-0.151728 1.87491 -0.0739974 0 0 0
-0.0986251 1.8178 -0.119334 0 0 0
-0.0965325 1.87053 -0.107859 0 0 0
-0.107575 1.80396 -0.0913863 0 0 0
-0.0963594 1.86766 -0.0928785 0 0 0
-0.126527 1.6792 -0.0181862 0 0 0
-0.14002 1.7448 -0.0186381 0 0 0
-0.0934919 1.68475 -0.0059029 0 0 0
-0.0331978 1.69389 -0.0282725 0 0 0
-0.0915672 1.7479 -0.0118968 0 0 0
-0.137192 1.80633 -0.0140203 0 0 0
-0.131281 1.86903 -0.0199369 0 0 0
-0.091874 1.81436 -0.0117489 0 0 0
-0.0438928 1.81026 -0.00283681 0 0 0
-0.0814113 1.87288 -0.00871543 0 0 0
-0.0410255 1.86176 0.00295849 0 0 0
-0.330815 1.01733 0.19446 0 0 0
-0.288868 1.02055 0.19029 0 0 0
-0.266277 1.05262 0.127805 0 0 0
-0.330698 1.03743 0.18377 0 0 0
-0.28424 1.04096 0.161325 0 0 0
-0.385847 1.00168 0.255601 0 0 0
-0.402072 0.957836 0.306473 0 0 0
-0.393161 0.977233 0.281754 0 0 0
-0.273759 0.960599 0.233365 0 0 0
-0.345993 0.991288 0.230593 0 0 0
-0.253713 0.978535 0.232338 0 0 0
-0.152239 0.983116 0.121726 0 0 0
-0.208345 1.0507 0.0969278 0 0 0
-0.012308 1.26198 0.100924 0 0 0
-0.0256992 1.30032 0.104961 0 0 0
0.0451529 -0.0589531 0.0196959 0 0 0
0.0567909 0.0117862 0.0145468 0 0 0
0.0828486 0.00057998 0.00969506 0 0 0
0.123174 -0.0511817 0.0429241 0 0 0
0.0491007 -0.000953862 0.0477065 0 0 0
0.104511 0.00732751 0.0421383 0 0 0
0.136774 -0.00323669 0.0470967 0 0 0
0.0429464 0.0672643 0.0103947 0 0 0
0.078824 0.062344 0.000297976 0 0 0
0.0412705 0.133185 0.00142512 0 0 0
0.0462202 0.0661083 0.0701765 0 0 0
0.0452337 0.13004 0.0685055 0 0 0
0.0369749 0.186562 -0.00630234 0 0 0
0.10494 0.188072 0.00408668 0 0 0
0.0305031 0.250497 -0.0251546 0 0 0
0.107507 0.248866 0.000248172 0 0 0
0.0422876 0.194424 0.0517629 0 0 0
0.0329298 0.243902 0.051665 0 0 0
0.0329396 0.318816 -0.025266 0 0 0
0.0340899 0.377606 -0.0261224 0 0 0
0.112352 0.370978 0.00686824 0 0 0
0.0485689 0.325729 0.0759859 0 0 0
0.976677 0.332222 -0.0706658 0 0 0
0.0422705 0.450923 -0.0126354 0 0 0
0.100938 0.441072 -0.00263921 0 0 0
0.0464132 0.507715 -0.00841698 0 0 0
0.0890258 0.505065 0.00873614 0 0 0
0.0350426 0.459625 0.0538351 0 0 0
0.0283981 0.505409 0.0404634 0 0 0
0.140818 0.445798 0.001824 0 0 0
0.0477742 0.577054 0.0132181 0 0 0
0.0798206 0.56657 0.012091 0 0 0
0.0327036 0.625173 -0.00163388 0 0 0
0.0739693 0.620566 0.0129928 0 0 0
0.0235699 0.560862 0.0433565 0 0 0
0.0250406 0.618063 0.0339797 0 0 0
0.01605 0.804439 -0.0547937 0 0 0
0.0312312 0.690579 -0.00668006 0 0 0
0.028945 0.747294 -0.00570056 0 0 0
0.019749 0.684767 0.0258609 0 0 0
0.0365129 0.812612 -0.0163723 0 0 0
0.0344025 0.877004 -0.00804621 0 0 0
0.0212306 0.89187 0.0329018 0 0 0
0.854367 0.572253 -0.131327 0 0 0
0.0403121 0.0222399 0.131041 0 0 0
0.0525671 0.0313793 0.162317 0 0 0
0.023754 0.121818 0.112951 0 0 0
0.0439167 0.0667384 0.177413 0 0 0
0.0310487 0.132351 0.18499 0 0 0
0.0526314 0.0847404 0.244824 0 0 0
0.03064 0.126172 0.242813 0 0 0
0.0352385 0.143958 0.302806 0 0 0
0.0183496 0.182225 0.115266 0 0 0
0.0298946 0.176346 0.182585 0 0 0
0.0182497 0.328914 0.0976605 0 0 0
0.021551 0.385257 0.112209 0 0 0
0.0217285 0.169511 0.24587 0 0 0
0.0376003 0.178715 0.307032 0 0 0
0.038847 0.147377 0.35345 0 0 0
0.0447018 0.194438 0.367453 0 0 0
0.0419815 0.187649 0.400328 0 0 0
0.0290876 0.422373 0.100804 0 0 0
0.0138507 0.942509 -0.0530873 0 0 0
0.0185841 0.990136 -0.051283 0 0 0
0.157011 1.13483 -0.0605276 0 0 0
0.205408 1.14043 -0.0786995 0 0 0
0.0403996 0.943207 -0.01166 0 0 0
0.0840927 0.936618 -0.00497367 0 0 0
0.0393169 1.00001 0.00125976 0 0 0
0.0234919 0.937323 0.0535786 0 0 0
0.0395998 0.998707 0.0563983 0 0 0
0.103859 0.999903 0.0525567 0 0 0
0.159057 1.00466 0.0528817 0 0 0
0.224774 1.02498 0.0421753 0 0 0
0.0406569 1.06861 0.00937868 0 0 0
0.0994392 1.08163 0.0086787 0 0 0
0.105554 1.1094 -0.0210714 0 0 0
0.0460962 1.04401 0.0454166 0 0 0
0.0963627 1.04896 0.0523866 0 0 0
0.141134 1.11044 -0.0213392 0 0 0
0.228533 1.12299 0.00609214 0 0 0
0.163931 1.06115 0.0632833 0 0 0
0.225202 1.06411 0.0589543 0 0 0
0.278917 1.07458 0.0586053 0 0 0
0.345937 1.08591 0.0604834 0 0 0
0.276297 1.10942 0.0560163 0 0 0
0.400655 1.10736 0.0773431 0 0 0
0.0166195 1.21091 -0.0574384 0 0 0
0.0105668 1.22458 -0.0673175 0 0 0
0.231069 1.182 -0.124423 0 0 0
0.180301 1.17011 -0.0855145 0 0 0
0.0164227 1.2465 0.0176252 0 0 0
0.100836 1.0086 0.106412 0 0 0
0.157204 1.02197 0.107685 0 0 0
0.161784 1.04965 0.0898114 0 0 0
0.223889 1.06004 0.1107 0 0 0
0.288099 1.07919 0.11774 0 0 0
0.343492 1.0805 0.128646 0 0 0
0.359163 1.11466 0.110746 0 0 0
0.408847 1.1228 0.121509 0 0 0
0.466268 1.13632 0.10401 0 0 0
0.416431 1.10382 0.165137 0 0 0
0.472794 1.13625 0.16661 0 0 0
0.0401772 1.26271 0.117781 0 0 0
0.0290043 1.27347 0.161294 0 0 0
0.0135668 1.2936 0.131796 0 0 0
0.0275876 1.28858 0.157336 0 0 0
0.469044 1.16631 0.12415 0 0 0
0.482407 1.18328 0.154964 0 0 0
0.52909 1.14376 0.115841 0 0 0
0.540404 1.17842 0.130607 0 0 0
0.57671 1.17842 0.143145 0 0 0
0.535989 1.1926 0.177858 0 0 0
0.589397 1.20558 0.174318 0 0 0
0.595479 1.23574 0.182384 0 0 0
0.654253 1.252 0.190386 0 0 0
0.712125 1.26341 0.198824 0 0 0
0.6128 1.24469 0.224773 0 0 0
0.640767 1.25789 0.24068 0 0 0
0.717967 1.2743 0.232627 0 0 0
0.607085 1.30451 0.249462 0 0 0
0.583474 1.31795 0.283371 0 0 0
0.652565 1.3067 0.240719 0 0 0
0.724641 1.30313 0.247236 0 0 0
0.7424 1.30543 0.281491 0 0 0
0.772894 1.31383 0.245232 0 0 0
0.839685 1.32841 0.256559 0 0 0
0.786145 1.35358 0.258026 0 0 0
0.842935 1.36355 0.255998 0 0 0
0.775883 1.3288 0.299864 0 0 0
0.852634 1.32848 0.311209 0 0 0
0.788021 1.35499 0.298842 0 0 0
0.858285 1.37334 0.30854 0 0 0
0.902665 1.32583 0.303771 0 0 0
0.973586 1.32983 0.309593 0 0 0
0.8991 1.37525 0.314463 0 0 0
0.964067 1.3622 0.321157 0 0 0
0.917514 1.32791 0.355102 0 0 0
0.966489 1.32753 0.369525 0 0 0
0.904864 1.37491 0.354462 0 0 0
0.921055 1.41805 0.318498 0 0 0
0.945278 1.42722 0.331477 0 0 0
0.91027 1.43837 0.366253 0 0 0
0.968694 1.44464 0.365622 0 0 0
0.931526 1.4895 0.363398 0 0 0
0.968842 1.49408 0.367224 0 0 0
0.966178 1.45275 0.410362 0 0 0
0.988539 1.48817 0.417566 0 0 0
0.97126 1.56589 0.385631 0 0 0
0.975234 1.61234 0.392073 0 0 0
0.978361 1.56327 0.403319 0 0 0
0.977888 1.62644 0.403566 0 0 0
0.980579 1.68203 0.394148 0 0 0
0.995077 1.68619 0.408659 0 0 0
0.995946 1.73804 0.399564 0 0 0
1.01878 1.45638 0.37731 0 0 0
1.021 1.49861 0.377297 0 0 0
1.03415 1.50138 0.420791 0 0 0
1.09339 1.51155 0.4318 0 0 0
1.01223 1.55805 0.373506 0 0 0
1.01582 1.62204 0.379697 0 0 0
1.10508 1.54837 0.43383 0 0 0
1.1405 1.56632 0.452665 0 0 0
1.03818 1.51326 0.487618 0 0 0
1.09776 1.51355 0.489953 0 0 0
1.09608 1.51239 0.533539 0 0 0
1.14987 1.51076 0.493392 0 0 0
1.17608 1.50811 0.526671 0 0 0
1.05268 1.54254 0.479856 0 0 0
1.08542 1.54999 0.481294 0 0 0
1.09634 1.5647 0.55235 0 0 0
1.15469 1.54853 0.501881 0 0 0
1.16869 1.6015 0.489769 0 0 0
1.1461 1.57236 0.541174 0 0 0
1.153 1.61165 0.556888 0 0 0
1.03393 1.68754 0.379571 0 0 0
1.03883 1.73262 0.370094 0 0 0
1.02387 1.69621 0.405935 0 0 0
1.03028 1.73701 0.408357 0 0 0
0.513509 1.58321 0.630183 0 0 0
0.535975 1.62475 0.66243 0 0 0
1.11468 1.62704 0.609895 0 0 0
1.14837 1.63268 0.606556 0 0 0
1.12948 1.64496 0.658636 0 0 0
1.11945 1.66592 0.628303 0 0 0
1.16681 1.67012 0.634569 0 0 0
1.1538 1.69055 0.666914 0 0 0
1.19453 1.69388 0.666909 0 0 0
1.1521 1.74154 0.695941 0 0 0
1.19647 1.73665 0.698351 0 0 0
1.15474 1.75116 0.724592 0 0 0
1.19853 1.75942 0.71458 0 0 0
1.15649 1.80711 0.740507 0 0 0
1.20518 1.8158 0.742139 0 0 0
1.20528 1.8587 0.751266 0 0 0
1.17278 1.82103 0.779317 0 0 0
1.1721 1.87326 0.802367 0 0 0
1.21911 1.87736 0.787704 0 0 0
-0.464291 1.91768 -0.311073 0 0 0
-0.459993 1.91536 -0.269454 0 0 0
-0.392085 1.93847 -0.260899 0 0 0
-0.325262 1.93187 -0.188188 0 0 0
-0.206819 2.13777 -0.190728 0 0 0
0.000311847 2.07964 -0.193268 0 0 0
-0.0184619 2.10231 -0.211309 0 0 0
-0.166346 2.17254 -0.256063 0 0 0
-0.213826 2.18496 -0.181704 0 0 0
-0.169419 2.18088 -0.177874 0 0 0
-0.134846 2.32629 -0.170578 0 0 0
-0.0871083 2.30933 -0.183363 0 0 0
-0.088946 2.35158 -0.185524 0 0 0
-0.318235 1.91434 -0.148508 0 0 0
-0.264771 1.93519 -0.128298 0 0 0
-0.27849 1.95369 -0.053226 0 0 0
-0.449491 1.94981 0.0749759 0 0 0
-0.39911 1.9472 0.063695 0 0 0
-0.330391 1.95807 -0.00554324 0 0 0
-0.318258 1.97818 -0.0083065 0 0 0
-0.348807 1.9756 0.0397524 0 0 0
-0.216953 1.94208 -0.110575 0 0 0
-0.139488 1.93623 -0.106454 0 0 0
-0.129071 2.00519 -0.103654 0 0 0
-0.209237 1.93447 -0.0683578 0 0 0
-0.145824 1.93012 -0.0923465 0 0 0
-0.132962 1.99071 -0.0970882 0 0 0
-0.101123 1.93491 -0.102916 0 0 0
-0.0964151 1.99959 -0.107662 0 0 0
-0.0229031 2.01594 -0.109856 0 0 0
-0.0828585 1.93048 -0.072241 0 0 0
-0.0458173 1.93582 -0.0552241 0 0 0
-0.0774219 1.99394 -0.065287 0 0 0
-0.0421076 1.99827 -0.0874148 0 0 0
-0.144298 2.06497 -0.116476 0 0 0
-0.185484 2.1317 -0.134295 0 0 0
-0.146416 2.11619 -0.129331 0 0 0
-0.15002 2.05521 -0.0750848 0 0 0
-0.162694 2.11745 -0.064632 0 0 0
-0.0972586 2.06089 -0.106472 0 0 0
-0.0194205 2.05027 -0.125085 0 0 0
-0.0972496 2.11764 -0.116518 0 0 0
-0.0711604 2.05903 -0.0788601 0 0 0
-0.0743456 2.1203 -0.0772668 0 0 0
-0.0496247 2.12582 -0.0731183 0 0 0
-0.211232 1.95021 -0.00493263 0 0 0
-0.140115 1.93823 -0.0167388 0 0 0
-0.142689 1.99188 -0.0241849 0 0 0
-0.0966482 1.92635 -0.0236436 0 0 0
-0.0956212 1.97536 -0.0219662 0 0 0
-0.150093 2.06955 -0.0137757 0 0 0
-0.144943 2.11518 -0.010975 0 0 0
-0.158327 2.07178 0.0461811 0 0 0
-0.15025 2.10022 0.050974 0 0 0
-0.0939246 2.12646 0.00384287 0 0 0
-0.032303 2.13679 -0.000836499 0 0 0
-0.0892707 2.12343 0.045532 0 0 0
-0.0452187 2.12684 0.0583654 0 0 0
-0.199546 2.17263 -0.132968 0 0 0
-0.154763 2.16388 -0.12454 0 0 0
-0.139795 2.24986 -0.11116 0 0 0
-0.161726 2.18754 -0.067424 0 0 0
-0.164547 2.24009 -0.0427096 0 0 0
-0.0995675 2.17981 -0.11296 0 0 0
-0.10416 2.24954 -0.106556 0 0 0
-0.0741345 2.17593 -0.0775293 0 0 0
-0.0419841 2.18627 -0.0534319 0 0 0
-0.0841961 2.26038 -0.0720038 0 0 0
-0.0483828 2.24012 -0.0455108 0 0 0
-0.147489 2.31307 -0.131397 0 0 0
-0.146224 2.37981 -0.110571 0 0 0
-0.145672 2.30846 -0.0487386 0 0 0
-0.194696 2.36789 -0.0645506 0 0 0
-0.152769 2.3756 -0.0494821 0 0 0
-0.0866194 2.31316 -0.10918 0 0 0
-0.091875 2.36869 -0.127972 0 0 0
-0.0839015 2.29568 -0.0601304 0 0 0
-0.0803553 2.37323 -0.0641668 0 0 0
-0.149311 2.18795 -0.0287262 0 0 0
-0.190079 2.25213 -0.0224608 0 0 0
-0.141638 2.2409 -0.0293529 0 0 0
-0.0989426 2.19331 -0.0261145 0 0 0
-0.0927824 2.24341 -0.0281972 0 0 0
-0.0403077 2.15829 0.0631075 0 0 0
-0.140698 2.30794 -0.029997 0 0 0
-0.1323 2.37178 -0.032745 0 0 0
-0.0865546 2.33168 -0.0311209 0 0 0
-0.0879691 2.36628 -0.026585 0 0 0
-0.0905545 2.56029 -0.163925 0 0 0
-0.0913294 2.6185 -0.169481 0 0 0
-0.0907239 2.67935 -0.168497 0 0 0
-0.0842378 2.74018 -0.16839 0 0 0
-0.124089 2.43047 -0.129047 0 0 0
-0.142985 2.49921 -0.136188 0 0 0
-0.148912 2.43405 -0.0554642 0 0 0
-0.143152 2.50013 -0.0594111 0 0 0
-0.085027 2.43369 -0.135358 0 0 0
-0.0723615 2.48476 -0.143407 0 0 0
-0.0460181 2.49045 -0.114043 0 0 0
-0.0860834 2.42619 -0.057017 0 0 0
-0.0790286 2.49842 -0.0655079 0 0 0
-0.146814 2.55727 -0.142326 0 0 0
-0.147661 2.62044 -0.14382 0 0 0
-0.1507 2.55819 -0.071779 0 0 0
-0.188856 2.61921 -0.0608591 0 0 0
-0.141536 2.62214 -0.0599595 0 0 0
-0.0767099 2.55532 -0.148114 0 0 0
-0.0530441 2.53964 -0.119742 0 0 0
-0.0856534 2.61736 -0.151308 0 0 0
-0.0827108 2.55005 -0.0653211 0 0 0
-0.0892582 2.5957 -0.0537429 0 0 0
-0.150746 2.68337 -0.130076 0 0 0
-0.146092 2.73357 -0.13261 0 0 0
-0.200199 2.67937 -0.0697436 0 0 0
-0.14556 2.68628 -0.059835 0 0 0
-0.19628 2.74129 -0.066819 0 0 0
-0.141594 2.74698 -0.0613487 0 0 0
-0.0939662 2.67605 -0.149464 0 0 0
-0.0751951 2.74496 -0.149441 0 0 0
-0.0870823 2.67871 -0.0567591 0 0 0
-0.087855 2.74723 -0.0603178 0 0 0
-0.139724 2.79913 -0.0639334 0 0 0
-0.0846103 2.79421 -0.129368 0 0 0
-0.0359761 2.81373 -0.133995 0 0 0
-0.0743945 2.8639 -0.107044 0 0 0
-0.0175988 2.86396 -0.120959 0 0 0
-0.0875153 2.80287 -0.0576281 0 0 0
-0.0501415 2.80218 -0.0512362 0 0 0
-0.0814956 2.86037 -0.073374 0 0 0
-0.0395367 2.8769 -0.0696971 0 0 0
-0.0244385 2.80524 -0.0184809 0 0 0
-0.0872243 2.88555 -0.0355435 0 0 0
-0.0325337 2.8696 -0.0286533 0 0 0
-0.464729 1.9548 0.0941413 0 0 0
-0.474383 1.97343 0.114292 0 0 0
-0.256677 2.08072 0.304872 0 0 0
-0.166517 2.07576 0.118927 0 0 0
-0.171773 2.10181 0.117268 0 0 0
-0.151274 2.05568 0.176518 0 0 0
-0.203729 2.10246 0.18295 0 0 0
-0.0332181 2.14137 0.107735 0 0 0
-0.208135 2.07573 0.249725 0 0 0
-0.158316 2.04767 0.243836 0 0 0
-0.228765 2.09672 0.234908 0 0 0
-0.211865 2.06077 0.297525 0 0 0
-0.0345338 2.18208 0.119649 0 0 0
-0.0190882 2.18652 0.161524 0 0 0
-0.00397604 2.22711 0.169155 0 0 0
-0.256235 2.07202 0.369007 0 0 0
-0.377494 2.01533 0.548996 0 0 0
-0.322357 2.05049 0.492119 0 0 0
-0.342628 2.06543 0.554559 0 0 0
-0.208871 2.01463 0.445618 0 0 0
-0.236712 2.05773 0.355901 0 0 0
-0.209669 2.01375 0.475174 0 0 0
-0.0307099 2.93095 -0.119494 0 0 0
-0.0583279 2.92643 -0.0830642 0 0 0
-0.0497504 2.93005 -0.0640693 0 0 0
-0.028435 2.99367 -0.0621299 0 0 0
-0.0187342 3.03596 -0.0561985 0 0 0
-0.0919288 2.92289 -0.0201059 0 0 0
-0.0348332 2.92886 -0.0159794 0 0 0
-0.0902527 2.99501 0.00252506 0 0 0
-0.0182439 2.99128 0.00185894 0 0 0
-0.136826 3.04604 0.0431883 0 0 0
-0.0732978 3.05368 0.0124573 0 0 0
-0.017401 3.05215 0.00553716 0 0 0
-0.0255366 3.11556 -0.00888025 0 0 0
-0.0931223 3.05536 0.0287189 0 0 0
-0.0687043 3.11643 0.0300812 0 0 0
-0.0178396 3.16822 -0.00589143 0 0 0
-0.0207959 3.24452 -0.0117976 0 0 0
-0.0666965 3.17884 0.0426212 0 0 0
-0.0518306 3.17771 0.0352523 0 0 0
-0.0661596 3.24706 0.0512575 0 0 0
-0.0468034 3.2423 0.0572235 0 0 0
-0.0362672 3.29639 0.0173688 0 0 0
-0.00994441 3.3541 0.0087678 0 0 0
-0.0645944 3.29832 0.0571718 0 0 0
-0.0172717 3.31167 0.0412902 0 0 0
-0.079285 3.368 0.0713246 0 0 0
-0.0423319 3.35585 0.0512461 0 0 0
-0.000936248 3.42198 0.00522111 0 0 0
-0.0163594 3.48562 0.00450574 0 0 0
-0.0656436 3.41528 0.0723584 0 0 0
-0.0312054 3.43751 0.0600221 0 0 0
-0.0320559 3.4959 0.0470939 0 0 0
0.00145387 3.54219 0.0208563 0 0 0
-0.0144355 3.54115 0.066847 0 0 0
0.00129072 3.61764 0.0344181 0 0 0
-0.0154784 3.74256 -0.00460143 0 0 0
-0.0968605 3.74353 0.0449262 0 0 0
-0.0119602 3.75681 0.065081 0 0 0
-0.0215688 3.77909 -0.00662849 0 0 0
-0.0133639 3.79216 0.0548632 0 0 0
-0.00770503 3.8457 0.0652951 0 0 0
-0.0663043 3.55065 0.105782 0 0 0
-0.0333596 3.56328 0.101378 0 0 0
-0.062385 3.59314 0.112071 0 0 0
-0.0236104 3.58881 0.110248 0 0 0
-0.507019 2.11805 0.936976 0 0 0
-0.507638 2.13307 0.978469 0 0 0
-0.523068 2.17578 0.994183 0 0 0
-0.535208 2.19472 1.02355 0 0 0
-0.562877 2.25033 1.06065 0 0 0
-0.550363 2.23688 1.04314 0 0 0
-0.578117 2.28959 1.0747 0 0 0
-0.377503 2.04613 0.700005 0 0 0
-0.396545 2.01902 0.743017 0 0 0
-0.383977 2.04157 0.741789 0 0 0
-0.389457 2.04915 0.804239 0 0 0
-0.406211 2.01799 0.865789 0 0 0
-0.446964 2.07134 0.871191 0 0 0
-0.410555 2.05813 0.862815 0 0 0
-0.462338 2.07619 0.912237 0 0 0
-0.465583 2.10967 0.928777 0 0 0
-0.479914 2.12065 0.966616 0 0 0
-0.584813 2.26903 1.09713 0 0 0
-0.621398 2.36627 1.13755 0 0 0
-0.63593 2.37232 1.15909 0 0 0
-0.59921 2.30653 1.1089 0 0 0
-0.611974 2.35248 1.12882 0 0 0
-0.652151 2.41075 1.1761 0 0 0
0.0932749 2.12288 -0.364276 0 0 0
0.0520541 2.13072 -0.316202 0 0 0
0.111737 2.12717 -0.319338 0 0 0
0.180491 2.13794 -0.381177 0 0 0
0.148929 2.14178 -0.335993 0 0 0
0.0434441 2.07631 -0.23716 0 0 0
0.0834728 2.08144 -0.271247 0 0 0
0.031249 2.11389 -0.256304 0 0 0
0.0812983 2.10933 -0.272297 0 0 0
0.0211469 2.06618 -0.19788 0 0 0
0.0147735 2.09634 -0.208104 0 0 0
0.077039 2.16613 -0.377934 0 0 0
0.170218 2.15911 -0.372922 0 0 0
0.0338411 2.24742 0.185951 0 0 0
0.0486087 2.29529 0.200125 0 0 0
0.0625977 2.30378 0.216517 0 0 0
0.0818931 2.30172 0.224861 0 0 0
0.0237231 3.0614 -0.0629621 0 0 0
0.0342416 3.11413 -0.0535474 0 0 0
0.0303972 3.11216 -0.00470188 0 0 0
0.0129366 3.12751 0.0319102 0 0 0
0.0387467 3.17638 -0.0495547 0 0 0
0.0382785 3.17091 -0.00211996 0 0 0
0.0331743 3.23987 -0.00803637 0 0 0
0.0154086 3.17535 0.0319647 0 0 0
0.0279972 3.24147 0.0381446 0 0 0
0.0316979 3.30193 -0.00201674 0 0 0
0.0305614 3.36891 -0.00183214 0 0 0
0.0392498 3.30653 0.0441908 0 0 0
0.0367512 3.36746 0.0513418 0 0 0
0.0341185 3.41494 0.00626084 0 0 0
0.0216167 3.48559 0.00621316 0 0 0
0.0407449 3.43255 0.048732 0 0 0
0.0402192 3.4898 0.0458881 0 0 0
0.0718865 3.49028 0.0507412 0 0 0
0.0209082 3.55233 0.00288972 0 0 0
0.0159186 3.61522 0.00897534 0 0 0
0.0330646 3.55373 0.0520754 0 0 0
0.0723212 3.55387 0.0548422 0 0 0
0.0395561 3.61018 0.0521495 0 0 0
0.0731747 3.60368 0.0690104 0 0 0
0.0209387 3.73146 -0.00160183 0 0 0
0.0459948 3.6739 0.0516353 0 0 0
0.0348571 3.74213 0.0559324 0 0 0
0.0719777 3.75054 0.0560598 0 0 0
0.0411948 3.80134 0.0518401 0 0 0
0.0714038 3.81985 0.0574395 0 0 0
0.0123972 3.84343 0.0699251 0 0 0
0.0181049 3.56613 0.105898 0 0 0
0.0354155 3.61748 0.104194 0 0 0
0.0806695 3.6038 0.0941636 0 0 0
1.1748 1.91397 0.812981 0 0 0
1.21519 1.92394 0.820554 0 0 0
1.17692 1.9409 0.851632 0 0 0
1.222 1.94399 0.854914 0 0 0
1.23234 1.98797 0.869434 0 0 0
