ply
format ascii 1.0
comment VCGLIB generated
element vertex 906
property float x
property float y
property float z
property uchar red
property uchar green
property uchar blue
end_header
-0.290227 1.12808 -1.74241
-0.277164 1.12272 -1.69434
-0.223468 1.06008 -1.67468
-0.0858412 0.935543 -1.62637
-0.085033 0.936819 -1.56262
-0.0152276 0.98094 -1.55964
-0.216116 1.06292 -1.63047
-0.205408 1.05333 -1.57114
-0.17296 1.0216 -1.49834
-0.170777 1.01452 -1.44184
-0.0400212 0.944523 -1.50607
-0.0776699 0.996505 -1.43379
-0.0375977 0.982487 -1.43713
-0.185751 1.04568 -1.49285
-0.180649 1.03831 -1.45574
-0.146346 0.942862 -1.37635
-0.158492 1.00304 -1.37065
-0.139274 0.951857 -1.32242
-0.144224 0.999196 -1.317
-0.120394 0.951475 -1.31253
-0.106187 0.992909 -1.31033
-0.212488 0.961351 -1.24901
-0.208137 0.973025 -1.24949
-0.152494 0.992919 -1.2048
-0.102582 0.964569 -1.2466
-0.102805 0.994062 -1.25608
-0.105093 0.99205 -1.18684
-0.0225742 1.01432 -1.17711
-0.0197622 0.961575 -1.11808
-0.102235 1.01027 -1.13807
-0.0213182 1.00292 -1.13346
-0.0303393 1.03791 -1.13652
-0.101559 1.08404 -1.00566
-0.0405484 1.07312 -1.00145
-0.0519472 1.08188 -0.949849
-0.0494764 1.11272 -0.945993
-0.151956 1.35934 -1.05843
-0.102952 1.25855 -0.994255
-0.0814112 1.19946 -0.942957
-0.0600543 1.18428 -0.933345
-0.0934103 1.24747 -0.94312
-0.141423 1.31329 -1.00499
-0.151907 1.36379 -1.02485
-0.117308 1.31189 -1.00595
-0.121833 1.35083 -1.00086
-0.101824 1.30012 -0.968259
-0.0555816 1.13724 -0.888234
-0.0522502 1.14988 -0.833663
-0.0805306 1.18631 -0.901096
-0.0566196 1.18236 -0.886034
-0.0428749 1.1826 -0.817027
-0.0319725 1.19529 -0.760578
-0.0179454 1.22531 -0.741463
-0.0197373 1.20438 -0.695561
-0.0124078 1.23209 -0.698381
-0.0203579 1.21032 -0.632611
-0.0241802 1.23078 -0.624752
-0.0164476 1.24589 -0.570606
-0.00752194 1.24277 -0.520033
-0.951628 1.89096 -0.547473
-0.899736 1.87587 -0.542505
-0.842643 1.82617 -0.54728
-0.797261 1.81741 -0.544563
-0.863407 1.8604 -0.541673
-0.901737 1.88008 -0.536318
-0.844149 1.83177 -0.535148
-0.778403 1.81763 -0.524997
-0.846367 1.85722 -0.527646
-0.784225 1.8525 -0.531201
-0.618278 1.75887 -0.508566
-0.597538 1.77363 -0.461915
-0.701415 1.8197 -0.509174
-0.660949 1.83687 -0.488702
-0.702009 1.82402 -0.457644
-0.652484 1.83488 -0.452281
-0.649355 1.84521 -0.446365
-0.5828 1.80252 -0.486859
-0.585526 1.81735 -0.445238
-0.579668 1.85813 -0.425483
0.10762 1.37086 -2.03852
0.123748 1.38739 -2.04134
0.126194 1.27251 -1.91775
0.0924579 1.38102 -2.00485
0.136688 1.31175 -1.93747
0.0853529 1.13638 -1.80619
0.0246669 1.01177 -1.67168
0.0384701 1.06654 -1.74141
0.0514483 1.10366 -1.75992
0.0604481 1.11171 -1.75049
0.0368197 1.05362 -1.69381
0.107701 1.20154 -1.86453
0.110536 1.24802 -1.87889
0.0907825 1.17678 -1.81878
0.12597 1.24989 -1.89261
0.0277422 1.01001 -1.62869
0.00669306 0.989704 -1.58865
0.0250663 1.03725 -1.65151
0.0256695 1.00356 -1.16954
0.0100254 1.00197 -1.15081
0.00171236 1.2691 -0.570178
0.00548109 1.26309 -0.507759
0.00606343 1.26219 -0.446246
0.014708 1.28973 -0.49414
0.0111699 1.29806 -0.444718
-1.32975 2.27164 -0.666352
-1.25645 2.25274 -0.705291
-1.26659 2.29091 -0.733574
-1.34447 2.34282 -0.729173
-1.34481 2.31141 -0.689694
-1.25859 2.29884 -0.714736
-1.34687 2.35219 -0.710468
-1.21871 2.20339 -0.671808
-1.23358 2.24238 -0.688068
-1.24282 2.29866 -0.696792
-1.02751 1.94795 -0.55374
-1.08575 1.99841 -0.572567
-1.03948 1.99818 -0.561715
-1.13814 2.0711 -0.61661
-1.21308 2.13478 -0.632823
-1.15673 2.12246 -0.632358
-1.09388 2.06775 -0.607349
-1.11991 2.10577 -0.62851
-1.09362 2.04653 -0.587357
-1.26719 2.18751 -0.632879
-1.32159 2.25967 -0.656273
-1.29274 2.24248 -0.643317
-1.32558 2.28366 -0.655736
-1.30161 2.29387 -0.651827
-1.22332 2.1817 -0.645358
-1.18104 2.16397 -0.652825
-0.970307 1.92772 -0.550801
-0.926897 1.91897 -0.542587
0.0996123 2.18242 -0.429281
0.157331 2.19257 -0.436084
-0.017334 0.0079533 -0.00246512
-0.0859505 0.0125375 0.0655277
-0.0583184 0.00495219 0.0726055
-0.0158797 0.0711251 -0.00708647
-0.0204532 0.118747 -0.00282306
-0.0875968 0.0685489 0.0557101
-0.0847543 0.133078 0.070352
-0.0479847 0.148127 0.0601947
-0.0384963 0.207485 -0.0481488
-0.0828526 0.276594 -0.0488669
-0.0420319 0.241553 -0.0533674
-0.158156 0.327729 -0.0650757
-0.138028 0.36791 -0.0582194
-0.0978607 0.317187 -0.0471012
-0.0975715 0.381503 -0.0607641
-0.0484223 0.380341 -0.044615
-0.141747 0.261806 0.065083
-0.0218874 0.188199 -0.0133239
-0.0347096 0.264199 -0.034752
-0.0891931 0.196682 0.0747615
-0.107045 0.245568 0.0721729
-0.225461 0.33208 0.006218
-0.220561 0.372436 0.00294526
-0.154896 0.369175 -0.00843582
-0.202103 0.320563 0.0412433
-0.158799 0.312957 0.0406521
-0.177523 0.364993 0.027629
-0.0981464 0.32486 -0.0155911
-0.0353304 0.313144 -0.0227972
-0.103638 0.395804 -0.014015
-0.044287 0.389451 -0.0121415
-0.102088 0.320298 0.0536796
-0.079661 0.381229 0.050439
-0.0644305 0.382839 0.0684581
-0.14325 0.430089 -0.059885
-0.0959421 0.428828 -0.0612409
-0.0446939 0.452891 -0.0469451
-0.0485319 0.506402 -0.0516542
-0.0446081 0.564126 -0.0518078
-0.0743514 0.628704 -0.0512067
-0.0490185 0.634513 -0.0554202
-0.153749 0.42512 -0.037935
-0.0943052 0.438836 -0.0119638
-0.0355436 0.442972 -0.0243075
-0.0448019 0.499218 -0.0228366
-0.0734832 0.433403 0.0532081
-0.0646108 0.432742 0.0686474
-0.0729398 0.510949 0.0519713
-0.0521513 0.499217 0.0617072
-0.0771127 0.573915 -0.0137025
-0.0474898 0.559986 -0.0203254
-0.0801864 0.624171 -0.00774882
-0.0298431 0.623599 -0.0329869
-0.0864824 0.563159 0.048911
-0.0365025 0.570577 0.0574711
-0.08414 0.629745 0.0487532
-0.0117804 0.630932 0.0697982
-0.0259725 0.694939 -0.0551118
-0.0403902 0.754882 -0.0682662
-0.117522 0.830646 -0.11519
-0.0414913 0.810824 -0.127789
-0.104483 0.81667 -0.0710647
-0.031787 0.812832 -0.0740536
-0.0887151 0.853498 -0.0769553
-0.0399507 0.876872 -0.0654923
-0.0831753 0.688403 -0.00851969
-0.107384 0.771989 -0.00508374
-0.0906774 0.684944 0.0663604
-0.0939734 0.748897 0.0400102
-0.0241678 0.764479 0.0447036
-0.103776 0.80826 -0.0122529
-0.0930689 0.880931 -0.0108919
-0.0925927 0.802748 0.0316093
-0.038802 0.820254 0.0559229
-0.0858959 0.879281 0.0449007
-0.0321022 0.877347 0.0618109
-0.0465287 0.001868 0.115591
-0.0473542 0.072147 0.120507
-0.0389548 0.131948 0.111372
-0.0216884 0.0646907 0.15163
-0.108898 0.195978 0.0912377
-0.0353775 0.190162 0.104786
-0.0995248 0.261972 0.0905546
-0.036914 0.251308 0.105365
-0.0752975 0.317966 0.0900989
-0.0363985 0.31589 0.104287
-0.0376212 0.376168 0.0986943
-0.0423272 0.444307 0.0950716
-0.0396778 0.509097 0.0931354
-0.0378999 0.554892 0.0880917
-0.0312105 0.612704 0.115355
-0.0320611 0.638317 0.165955
-0.0955167 0.678094 0.100245
-0.009798 0.680766 0.139067
-0.0283358 0.679787 0.179875
-0.092623 0.712282 0.2425
-0.0426449 0.681484 0.232159
-0.0883905 0.74908 0.252674
-0.0578227 0.758537 0.233233
-0.0999454 0.75135 0.297198
-0.0938226 0.799777 0.305363
-0.141995 0.769339 0.373884
-0.119085 0.763025 0.343766
-0.0362322 0.765924 0.36104
-0.132387 0.812683 0.359239
-0.114579 0.811977 0.348987
-0.0119556 1.26282 -0.378464
-0.0156709 1.25285 -0.322593
-0.0121787 1.29468 -0.380267
-0.0124259 1.28875 -0.343449
-0.0116255 1.21351 -0.260162
-0.0213199 1.24648 -0.262921
-0.0108497 1.20669 -0.198735
-0.0144664 1.23642 -0.196291
-0.0354638 0.937985 -0.0655954
-0.0439181 1.00002 -0.0678005
-0.0404008 1.06328 -0.0571968
-0.0513247 1.12558 -0.0554649
-0.108095 0.933688 0.00354024
-0.0712963 1.01482 -0.00476821
-0.0602168 1.01164 -0.0181646
-0.082932 0.944836 0.0582564
-0.0348728 0.937493 0.0559955
-0.0923354 1.00435 0.0448035
-0.0391829 1.00507 0.0572139
-0.137525 1.12382 -0.00017056
-0.219774 1.07198 0.0649288
-0.149407 1.06208 0.0576451
-0.223408 1.12417 0.051154
-0.161762 1.11168 0.0464543
-0.090438 1.06529 0.000600091
-0.0432693 1.07592 -0.0149827
-0.0957569 1.13143 -0.00982049
-0.037988 1.11719 -0.0130018
-0.101632 1.06173 0.0462974
-0.0329046 1.05553 0.045124
-0.0968102 1.12272 0.0475751
-0.0476135 1.12702 0.0421546
-0.397941 1.33437 -0.0771609
-0.414687 1.3615 -0.081591
-0.348728 1.32382 -0.0712589
-0.286633 1.3363 -0.0623243
-0.353694 1.35863 -0.06663
-0.284894 1.35721 -0.0497806
-0.269364 1.33641 -0.0271954
-0.274426 1.36194 -0.0353524
-0.036448 1.19401 -0.139342
-0.077207 1.16895 -0.0727552
-0.053012 1.1832 -0.0745584
-0.0735402 1.25922 -0.0711485
-0.0323441 1.24588 -0.0611074
-0.0877724 1.3761 -0.114214
-0.0851088 1.29334 -0.0724213
-0.0292896 1.3125 -0.0594493
-0.0904097 1.37398 -0.0799991
-0.0293242 1.36883 -0.0667892
-0.138822 1.18711 -0.00222239
-0.152431 1.2634 -0.0184327
-0.10163 1.18438 -0.0135465
-0.103183 1.25465 -0.0222139
-0.0895651 1.18555 0.0376168
-0.042355 1.18342 0.0399193
-0.093904 1.24678 0.0352156
-0.0345132 1.25994 0.0537664
-0.220362 1.32697 -0.0263975
-0.166664 1.31272 -0.0195906
-0.226258 1.35749 -0.0274287
-0.160134 1.36006 -0.0179042
-0.120145 1.31039 0.00397353
-0.00918518 1.30547 -0.0205347
-0.112161 1.37817 0.00867833
-0.0484459 1.37272 0.0164523
-0.0988959 1.31348 0.0317254
-0.0467766 1.31448 0.0546104
-0.0877809 1.37731 0.0266363
-0.0321136 1.36869 0.0507563
-0.532217 1.86749 -0.386847
-0.49446 1.86315 -0.363016
-0.480828 1.88147 -0.323258
-0.430911 1.89262 -0.268004
-0.351727 1.90155 -0.216156
-0.139092 1.49596 -0.0658006
-0.0773679 1.50081 -0.109228
-0.0979606 1.41398 -0.084925
-0.047769 1.44601 -0.066629
-0.118164 1.49462 -0.0744612
-0.0512833 1.4977 -0.0702852
-0.136778 1.56232 -0.0773874
-0.142526 1.62386 -0.072604
-0.0876329 1.56452 -0.117474
-0.101841 1.61414 -0.115112
-0.107784 1.55788 -0.084526
-0.0454295 1.55465 -0.0624103
-0.0328231 1.6245 -0.0722986
-0.149906 1.43251 -0.0136348
-0.0975994 1.43689 0.00860325
-0.0353393 1.4329 -0.0134986
-0.100095 1.49787 0.000502995
-0.0373581 1.4995 -0.0106256
-0.0981738 1.42773 0.024222
-0.13384 1.56203 -0.0218676
-0.134685 1.62488 -0.0169727
-0.102267 1.56227 -0.00901224
-0.0396937 1.55998 -0.0193752
-0.0967108 1.62382 -0.00991704
-0.0322799 1.62099 -0.0263384
-0.155436 1.68518 -0.0539568
-0.158516 1.73092 -0.0484457
-0.0782972 1.68532 -0.108527
-0.0984259 1.75774 -0.120942
-0.0307141 1.73138 -0.107233
-0.102741 1.68253 -0.0810455
-0.0368553 1.69476 -0.0761265
-0.0166828 1.74299 -0.0895073
-0.166163 1.8172 -0.0494329
-0.158522 1.8749 -0.0717478
-0.105334 1.81366 -0.135175
-0.111798 1.87353 -0.134312
-0.114337 1.80795 -0.0864878
-0.106212 1.86857 -0.0930923
-0.144423 1.7463 -0.0222474
-0.0965275 1.67981 -0.00694156
-0.0359691 1.69348 -0.0295991
-0.0994763 1.74512 -0.0110827
-0.0476246 1.75739 -0.00986696
-0.147765 1.80593 -0.0205533
-0.136756 1.86189 -0.0217171
-0.106377 1.811 -0.00865997
-0.0461676 1.81236 -0.00523252
-0.0999436 1.87278 -0.0137013
-0.0511462 1.86954 -0.00498355
-0.333001 1.0117 0.201873
-0.292668 1.02438 0.187185
-0.267619 1.05903 0.117106
-0.336245 1.03544 0.18912
-0.290061 1.04384 0.159844
-0.391745 1.00128 0.253518
-0.411968 0.960007 0.305444
-0.409532 0.985759 0.277604
-0.280892 0.959791 0.237851
-0.351317 0.994759 0.234402
-0.371725 0.960531 0.285616
-0.152239 0.983116 0.121726
-0.235628 1.05124 0.10995
-0.244099 0.983049 0.217509
-0.0214446 1.25737 0.094721
-0.0272989 1.3056 0.101995
-0.413483 0.949053 0.340323
0.0707578 0.00410313 0.00944393
0.0378235 -0.0618209 0.0273096
0.108042 -0.047964 0.0294663
0.0479341 -0.000407426 0.0447247
0.0923752 0.00729336 0.0451355
0.126906 -0.0565807 0.0445027
0.127264 0.00178734 0.0548325
0.0348095 0.072359 0.0109605
0.0719548 0.0679996 0.00239409
0.0380486 0.131377 0.00352066
0.0414167 0.0693473 0.0694577
0.0807328 0.0817377 0.0566308
0.0396596 0.128787 0.0700912
0.064573 0.133785 0.0651831
0.134843 0.093332 0.0385589
0.0287647 0.179099 -0.00390938
0.0843688 0.187469 -0.00171484
0.0266019 0.249427 -0.0225977
0.0961289 0.248696 -0.00205775
0.0403617 0.197093 0.0518538
0.0329298 0.243902 0.051665
0.121649 0.255265 0.00490757
0.0243269 0.321011 -0.0260477
0.0256141 0.380937 -0.0265276
0.0849166 0.377976 -0.0105849
0.102768 0.391344 0.0259576
0.12887 0.389103 0.000781757
0.0303797 0.446967 -0.024873
0.0830161 0.440817 -0.0114417
0.0382345 0.498307 -0.0314368
0.0830312 0.504784 0.00426492
0.0351081 0.463682 0.0490676
0.0900472 0.452838 0.0304376
0.0219681 0.501148 0.0458204
0.135215 0.44172 0.00709606
0.034007 0.583602 0.00573945
0.0729539 0.565729 0.0131375
0.0254012 0.632802 -0.00853647
0.066851 0.631801 0.0123901
0.0236653 0.557839 0.0448255
0.0105081 0.624503 0.0441395
0.00776084 0.810476 -0.0597661
0.00589365 0.884434 -0.0585868
0.0298978 0.690678 -0.0112936
0.0724495 0.697294 -0.00349777
0.0231252 0.746275 -0.00141711
0.063621 0.749318 -0.00989881
0.0143119 0.674633 0.0324841
0.0114848 0.743029 0.0280566
0.0306062 0.814583 -0.0138053
0.0582488 0.80996 -0.0133252
0.0337011 0.877069 -0.00826973
0.0172518 0.887909 0.034753
0.0257416 0.0218271 0.131178
0.030674 0.0126179 0.151555
0.0621174 0.0282888 0.180465
0.0334602 0.0738379 0.118384
0.024986 0.120895 0.110319
0.0319343 0.0719806 0.173495
0.0595589 0.0577747 0.182895
0.0259796 0.134084 0.180458
0.0423546 0.0881917 0.235673
0.065449 0.0813211 0.232631
0.0249629 0.128403 0.240601
0.0683207 0.124385 0.241271
0.0377843 0.1406 0.296159
0.0700207 0.132561 0.301645
0.0146643 0.189571 0.113957
0.00998067 0.258576 0.0983582
0.0308667 0.176262 0.181191
0.0217065 0.322588 0.0975942
0.0206585 0.387464 0.111103
0.024037 0.166865 0.237635
0.0366353 0.177019 0.303482
0.045207 0.145424 0.352367
0.0866782 0.14783 0.364268
0.0359777 0.191761 0.366328
0.0419815 0.187649 0.400328
0.019852 0.437249 0.097454
1.39905e-05 1.26056 -0.396903
0.00952573 0.939657 -0.0569323
0.0148583 0.988683 -0.0543883
0.155948 1.13759 -0.0627482
0.20322 1.14138 -0.0793982
0.0383681 0.941699 -0.017435
0.080914 0.93643 -0.00349148
0.0385123 0.994611 -0.00468888
0.0213361 0.939106 0.0532455
0.0249077 1.00244 0.0651757
0.0911884 0.997061 0.0481539
0.142854 0.999667 0.0445909
0.207608 1.01539 0.0473163
0.022974 1.07143 0.00539788
0.0884947 1.08082 0.0076017
0.100669 1.1089 -0.0203113
0.0362207 1.04291 0.0451726
0.0899155 1.05202 0.0536715
0.135398 1.1089 -0.0191173
0.154409 1.06032 0.0601408
0.211625 1.06645 0.0583067
0.229882 1.10793 0.040974
0.273306 1.07096 0.0543105
0.327738 1.08201 0.0600406
0.266152 1.11008 0.0556898
0.394487 1.09092 0.0676605
0.399257 1.10711 0.0771411
0.0101453 1.21143 -0.0616689
0.0040699 1.23307 -0.0619424
0.226057 1.18119 -0.1191
0.166514 1.16799 -0.079989
0.194534 1.17487 -0.0946389
0.00483378 1.255 -0.0109908
0.0216076 1.25422 0.0281416
0.000181926 1.29446 -0.0165788
0.249964 1.18386 -0.133405
0.0856351 1.00377 0.105577
0.14743 1.01885 0.112701
0.152426 1.04808 0.0890825
0.211136 1.05598 0.107304
0.270696 1.07431 0.114478
0.335236 1.08081 0.129037
0.346026 1.11098 0.110053
0.398914 1.12088 0.116523
0.457959 1.13326 0.110969
0.390362 1.09094 0.153473
0.404849 1.10343 0.161406
0.460963 1.13302 0.160026
0.00558162 1.26188 0.119219
0.0690572 1.26289 0.106173
0.0290043 1.27347 0.161294
0.010286 1.29785 0.127258
0.0275876 1.28858 0.157336
0.462112 1.16565 0.123738
0.468032 1.18208 0.153016
0.524541 1.14586 0.110315
0.496989 1.14371 0.174383
0.530177 1.1753 0.127385
0.567964 1.17937 0.137168
0.521365 1.18924 0.177203
0.579267 1.20179 0.172712
0.58973 1.23408 0.183719
0.633261 1.20722 0.163871
0.643672 1.24369 0.180588
0.70102 1.25543 0.192772
0.596407 1.2133 0.21884
0.607292 1.24554 0.222603
0.634011 1.24899 0.230687
0.707154 1.27226 0.228098
0.595441 1.3008 0.254065
0.584003 1.31852 0.284351
0.641976 1.29412 0.234998
0.722059 1.30102 0.238691
0.736005 1.30109 0.277546
0.759303 1.27361 0.221303
0.771859 1.3139 0.243213
0.82723 1.32629 0.251659
0.834083 1.35913 0.253029
0.771159 1.32627 0.297682
0.84825 1.32764 0.305551
0.783471 1.35908 0.290282
0.839754 1.36489 0.309119
0.892157 1.32707 0.293586
0.959604 1.33146 0.302451
0.890126 1.3641 0.306412
0.947988 1.37047 0.32154
0.849125 1.37298 0.33761
0.901634 1.32839 0.34212
0.962166 1.32801 0.365783
0.896489 1.37162 0.351933
0.951095 1.35105 0.36017
0.911546 1.41579 0.311701
0.936788 1.42075 0.326573
0.897697 1.43447 0.357534
0.955026 1.44108 0.365497
0.961215 1.48984 0.367707
0.967605 1.45439 0.409018
0.977403 1.48156 0.41023
0.965374 1.56226 0.381664
0.977008 1.5641 0.401502
0.958779 1.61904 0.413339
0.98345 1.68227 0.397133
1.00205 1.31948 0.31957
1.01107 1.31985 0.356396
1.01196 1.45181 0.371633
1.02092 1.49752 0.376556
1.02134 1.46437 0.411414
1.01976 1.49514 0.426419
1.08109 1.50906 0.420652
1.00229 1.56141 0.373934
1.01725 1.62168 0.377286
1.09121 1.54269 0.423512
0.996196 1.63295 0.409878
1.13287 1.56627 0.448927
1.03407 1.51471 0.475881
1.06054 1.51568 0.508406
1.09422 1.50941 0.527934
1.14268 1.51091 0.484517
1.13569 1.50678 0.535697
1.1849 1.51101 0.527363
1.06888 1.55138 0.48433
1.09386 1.56516 0.550451
1.14352 1.55453 0.490092
1.13849 1.56973 0.548845
1.14478 1.6166 0.553438
1.03385 1.68687 0.379657
1.035 1.72629 0.367915
1.05757 1.75 0.386271
1.01155 1.69612 0.408529
1.01905 1.74482 0.4051
1.06278 1.75751 0.39833
1.10946 1.6185 0.601569
1.14092 1.62967 0.608733
1.12626 1.64189 0.653518
1.14576 1.67071 0.621929
1.18173 1.67955 0.630227
1.14415 1.68991 0.667723
1.18862 1.69676 0.665497
1.14477 1.74079 0.700078
1.18506 1.72484 0.681506
1.15219 1.68961 0.717205
1.15201 1.74914 0.719888
1.19634 1.76368 0.716278
1.16124 1.80313 0.746106
1.20146 1.81045 0.739111
1.20344 1.85479 0.753166
1.16997 1.81862 0.778131
1.16763 1.87555 0.79473
1.20624 1.87595 0.795711
-0.459434 1.91772 -0.333784
-0.464239 1.91425 -0.272476
-0.398624 1.93736 -0.264213
-0.355767 1.94414 -0.237762
-0.327613 1.93203 -0.187478
-0.207804 2.13567 -0.191292
-0.0204457 2.10133 -0.209684
-0.166834 2.16847 -0.259054
-0.216795 2.1872 -0.193608
-0.172535 2.18253 -0.176458
-0.0878895 2.30975 -0.180366
-0.088946 2.35158 -0.185524
-0.322561 1.92009 -0.157845
-0.279194 1.93203 -0.138532
-0.27704 1.95422 -0.0561989
-0.412741 1.94971 0.0638647
-0.289783 1.96033 -0.0316757
-0.323165 1.98006 0.00318426
-0.311047 1.97684 -0.0201629
-0.362025 1.9502 0.048985
-0.348807 1.9756 0.0397524
-0.237569 1.93767 -0.115217
-0.162235 1.94038 -0.110343
-0.21931 1.9402 -0.0769632
-0.156316 1.93028 -0.0914385
-0.134571 1.99609 -0.0971991
-0.1029 1.93254 -0.104472
-0.100624 2.00045 -0.109103
-0.0197179 2.01622 -0.111958
-0.0874885 1.93197 -0.0816165
-0.0472462 1.93694 -0.056718
-0.0887403 1.99044 -0.0832294
-0.0527681 1.99902 -0.0912175
-0.146486 2.06764 -0.118687
-0.200633 2.13017 -0.160697
-0.16099 2.11674 -0.133104
-0.15446 2.06192 -0.0750915
-0.168992 2.1219 -0.0717955
-0.114564 2.06287 -0.108575
-0.0341298 2.05064 -0.122569
-0.110023 2.11722 -0.123223
-0.0943751 2.05897 -0.0923338
-0.0595096 2.04634 -0.072291
-0.0821479 2.11667 -0.0804407
-0.0542982 2.12035 -0.0741251
-0.215061 1.95025 -0.00575803
-0.154185 1.93065 -0.0157087
-0.148684 1.99301 -0.020149
-0.0981826 1.93162 -0.0261417
-0.115982 1.985 -0.0259045
-0.149455 2.05375 -0.0134311
-0.143971 2.12082 -0.019189
-0.157054 2.07484 0.0532486
-0.147682 2.09861 0.049536
-0.102645 2.13342 -0.00225712
-0.0376917 2.12972 0.00461322
-0.0891046 2.121 0.047907
-0.049716 2.12226 0.0448683
-0.202438 2.17318 -0.134698
-0.164142 2.16134 -0.134751
-0.158043 2.26432 -0.115516
-0.165755 2.18593 -0.0683413
-0.104559 2.18007 -0.116413
-0.113184 2.24929 -0.109489
-0.0793342 2.17869 -0.0884756
-0.0484519 2.18609 -0.0572952
-0.0875339 2.25594 -0.0735214
-0.0555766 2.25206 -0.0594007
-0.150863 2.3162 -0.131996
-0.149976 2.36706 -0.131955
-0.158381 2.31346 -0.050875
-0.204556 2.38035 -0.0699482
-0.16554 2.37947 -0.0655484
-0.108169 2.30647 -0.120867
-0.0944162 2.36773 -0.128112
-0.0812539 2.29856 -0.0616572
-0.0909645 2.38178 -0.0761833
-0.161692 2.19174 -0.034436
-0.159491 2.24767 -0.0283404
-0.102541 2.19158 -0.0315053
-0.0399753 2.1963 -0.0251273
-0.104937 2.24646 -0.0324321
-0.0580839 2.24471 -0.0378424
-0.039058 2.15908 0.0628366
-0.144371 2.30791 -0.0338633
-0.137178 2.37053 -0.034982
-0.112064 2.30785 -0.0377782
-0.0609859 2.32052 -0.037425
-0.10161 2.3632 -0.0315057
-0.0414321 2.37823 -0.0245219
-0.0913294 2.6185 -0.169481
-0.0891627 2.67946 -0.172226
-0.0842378 2.74018 -0.16839
-0.142985 2.49921 -0.136188
-0.154519 2.42893 -0.062415
-0.154078 2.49497 -0.061671
-0.104774 2.43402 -0.137187
-0.0572773 2.44645 -0.121458
-0.0809418 2.49757 -0.152663
-0.0557646 2.49557 -0.12479
-0.0972192 2.43737 -0.0564832
-0.0983861 2.49728 -0.0580217
-0.0563023 2.49449 -0.0866604
-0.145683 2.55706 -0.145451
-0.147661 2.62044 -0.14382
-0.161529 2.55568 -0.0698783
-0.157954 2.61856 -0.0688913
-0.0854565 2.55679 -0.155558
-0.055305 2.5504 -0.129931
-0.0856534 2.61736 -0.151308
-0.100009 2.55153 -0.0616049
-0.108322 2.60661 -0.0514362
-0.14794 2.68775 -0.13444
-0.155842 2.72982 -0.126369
-0.200199 2.67937 -0.0697436
-0.152262 2.67911 -0.0697024
-0.200937 2.73725 -0.0677146
-0.156188 2.74452 -0.064724
-0.0941351 2.67624 -0.154803
-0.102001 2.74878 -0.141726
-0.0600043 2.75465 -0.141487
-0.105627 2.68913 -0.0516803
-0.0967342 2.74598 -0.0606791
-0.0606664 2.74448 -0.0547078
-0.145731 2.79772 -0.0604464
-0.083377 2.80348 -0.135259
-0.0383603 2.8095 -0.134115
-0.0794299 2.85209 -0.111194
-0.0175988 2.86396 -0.120959
-0.0974594 2.8065 -0.057329
-0.0553506 2.80322 -0.0566133
-0.0908109 2.86686 -0.0653736
-0.0415802 2.86755 -0.0685592
-0.0950715 2.88795 -0.033669
-0.0342343 2.86987 -0.0263796
-0.466551 1.95499 0.0951009
-0.469841 1.97473 0.110354
-0.262067 2.08194 0.299885
-0.16931 2.07061 0.114332
-0.171773 2.10181 0.117268
-0.151274 2.05568 0.176518
-0.0368431 2.1416 0.102835
-0.222472 2.08312 0.244075
-0.165371 2.0533 0.243295
-0.232803 2.09527 0.239863
-0.225299 2.07101 0.298478
-0.175731 2.04239 0.291279
-0.0349458 2.18459 0.116485
-0.0186016 2.18732 0.16196
-0.262005 2.08055 0.364745
-0.34623 2.01877 0.495388
-0.323551 2.0506 0.492255
-0.312321 2.05676 0.479258
-0.340528 2.06415 0.550014
-0.215402 2.01195 0.444835
-0.237495 2.0632 0.356032
-0.213567 2.01667 0.466719
-0.0315465 2.93411 -0.121628
-0.0381466 2.93485 -0.0835458
-0.0359096 2.99431 -0.0698591
-0.0315861 3.0427 -0.0465377
-0.089316 2.93129 -0.0182482
-0.0365596 2.92418 -0.0165183
-0.0902527 2.99501 0.00252506
-0.0305724 2.99298 -0.0113295
-0.116162 3.01587 0.0287534
-0.146874 3.04209 0.0491504
-0.0810561 3.05356 0.0146075
-0.0336501 3.05411 0.00443017
-0.0308267 3.11898 -0.01447
-0.115622 3.04423 0.0330924
-0.0622296 3.0717 0.0228706
-0.0582959 3.13418 0.03827
-0.0224925 3.17566 -0.00821928
-0.0287752 3.22958 -0.0108887
-0.0717999 3.17851 0.0451777
-0.0571493 3.18023 0.038186
-0.0546951 3.24394 0.0565738
-0.0356443 3.2967 0.0159999
-0.0248569 3.36102 0.013838
-0.0418354 3.30209 0.0442912
-0.0895516 3.3745 0.0707732
-0.0509795 3.35267 0.0531553
-0.0589567 3.42011 0.0710521
-0.0562454 3.48302 0.0635773
-0.0285473 3.53372 0.0549076
-0.0362835 3.75553 -0.00201124
-0.0920833 3.6918 0.0707479
-0.0980394 3.74249 0.0438792
-0.0216663 3.75438 0.0491427
-0.0258334 3.77716 -0.00891191
-0.0237232 3.79283 0.0542326
-0.0626485 3.49818 0.0857453
-0.0559949 3.55041 0.103101
-0.0758704 3.61228 0.105902
-0.0502243 3.61172 0.102351
-0.0794906 3.66064 0.0896663
-0.0387519 3.77782 0.0938999
-0.511475 2.1081 0.935653
-0.517723 2.14008 0.981246
-0.526267 2.18105 0.995636
-0.532082 2.1954 1.02135
-0.569434 2.2525 1.06442
-0.552257 2.23139 1.04417
-0.575805 2.28139 1.072
-0.389363 2.01734 0.61099
-0.383025 2.03311 0.686168
-0.367133 2.06619 0.614319
-0.367211 2.05382 0.676924
-0.397746 2.01848 0.741442
-0.413821 2.01194 0.792482
-0.38375 2.04016 0.735408
-0.391035 2.04748 0.800174
-0.408042 2.01846 0.868021
-0.455384 2.07277 0.871232
-0.412017 2.05857 0.860456
-0.467302 2.07725 0.920762
-0.438126 2.0673 0.89871
-0.47985 2.11132 0.926517
-0.484562 2.12362 0.968051
-0.494145 2.16187 0.982247
-0.580608 2.26984 1.0905
-0.637467 2.37563 1.15752
-0.598608 2.30707 1.10722
-0.61319 2.35219 1.12859
-0.613807 2.32706 1.14824
-0.622151 2.36849 1.15027
-0.652151 2.41075 1.1761
0.0936515 2.12364 -0.365999
0.0487329 2.12383 -0.303917
0.0902488 2.1327 -0.326521
0.175062 2.14018 -0.364801
0.186413 2.13951 -0.397848
0.141659 2.13455 -0.337437
0.0347766 2.0784 -0.235801
0.0749491 2.08192 -0.262274
0.0319237 2.11399 -0.257552
0.0859338 2.10994 -0.27906
0.0167133 2.07316 -0.199474
0.0108199 2.09824 -0.210937
0.0824243 2.1693 -0.388245
0.170813 2.15767 -0.372168
-0.000726699 2.04297 -0.136856
0.0225692 2.24517 0.185121
0.0448197 2.29099 0.194285
0.0708841 2.30143 0.218935
0.00310993 2.99842 -0.0659846
0.0184009 3.05568 -0.0652742
0.0333977 3.11557 -0.056089
0.00667573 3.05907 0.0100195
0.0307522 3.11521 -0.00629897
0.0121958 3.11896 0.0288627
0.0379944 3.17692 -0.050277
0.0325762 3.17365 -0.00478257
0.0206231 3.23116 -0.016652
0.0114774 3.1755 0.0280672
0.0347461 3.24088 0.0333642
0.0219867 3.30185 0.00341549
0.0209907 3.36611 -0.00450153
0.0217937 3.30151 0.0463511
0.0603462 3.31143 0.0265593
0.018417 3.3649 0.0692309
0.0634031 3.36589 0.0341711
0.0248371 3.42424 0.00673525
0.0148479 3.48962 0.00365628
0.029152 3.42205 0.0567869
0.0638282 3.43148 0.0356917
0.0257215 3.49367 0.0465811
0.067416 3.48963 0.0408919
0.0174716 3.55114 0.0070019
0.0103563 3.6134 0.00934948
0.021841 3.55023 0.0525432
0.0695534 3.55348 0.0511445
0.0107685 3.62305 0.0426869
0.0684587 3.61325 0.0615181
0.0249622 3.69317 0.00382794
0.0150946 3.73275 -0.00136028
0.0254439 3.67424 0.0474317
0.0360912 3.74679 0.0501801
0.0662479 3.73928 0.053976
0.0263374 3.784 -0.00486408
0.0661414 3.80284 0.010136
0.0207412 3.79438 0.0501643
0.0678669 3.80927 0.0461689
0.0114047 3.84552 0.0700235
0.0691123 3.84079 0.0443112
0.0264036 3.49291 0.0866202
0.0163406 3.56899 0.10535
0.0215609 3.60539 0.108881
0.0786526 3.61084 0.0954154
1.16823 1.91793 0.811157
1.20955 1.92153 0.82193
1.16963 1.94832 0.845531
1.20529 1.93926 0.853383
1.2081 1.98565 0.870738
1.19209 1.99544 0.90065
