ply
format ascii 1.0
comment Created by Open3D
element vertex 1275
property double x
property double y
property double z
property uchar red
property uchar green
property uchar blue
end_header
-0.37816 1.36478 -0.0840333 151 130 127
-0.14282 1.42236 -0.0128664 180 156 149
-0.0992901 1.43768 0.0198461 111 79 69
-0.0874801 1.44538 0.0191967 108 78 68
-0.05825 1.44577 0.00763015 78 53 45
0.98988 1.71578 0.397509 212 202 200
0.99603 1.72644 0.399581 183 169 165
1.01328 1.72263 0.406591 79 56 50
1.00917 1.72831 0.40472 70 48 42
-0.37531 1.36503 -0.07347 137 114 110
-0.14787 1.40817 -0.0201055 214 201 197
0.98671 1.70572 0.396634 213 204 201
0.99669 1.70815 0.403539 91 66 61
1.00279 1.71823 0.404215 80 56 50
1.0073 1.71221 0.405412 76 54 47
1.01625 1.71705 0.404962 96 72 67
-0.37842 1.35761 -0.0648173 98 71 67
-0.38617 1.34005 -0.0783419 151 121 118
-0.35501 1.35012 -0.0744959 101 70 65
-0.3521 1.35045 -0.0726127 110 79 74
0.9839 1.6937 0.394728 185 174 171
0.99332 1.697 0.401452 96 73 68
1.01173 1.7019 0.410024 134 111 105
1.0088 1.70762 0.405754 88 65 58
1.01983 1.7118 0.408017 157 135 131
1.01887 1.70246 0.40741 185 167 164
-0.38259 1.33623 -0.0764515 181 156 153
-0.39245 1.32918 -0.0763356 224 214 212
-0.36996 1.34171 -0.0717838 163 136 132
-0.31286 1.35519 -0.0479217 151 117 112
-0.28903 1.35855 -0.0483166 111 81 77
-0.25322 1.37289 -0.0297552 222 210 207
-0.09411 1.41352 0.0250231 123 89 79
1.01443 1.69145 0.407164 180 161 157
1.16176 1.85408 0.774478 119 98 94
-0.31126 1.34 -0.0543109 200 180 178
-0.14693 1.37325 -0.0148409 195 177 172
0.97912 1.67695 0.394842 161 148 145
0.99642 1.68723 0.409 82 58 52
1.01641 1.68375 0.411734 228 221 219
1.00902 1.68938 0.409773 150 126 121
1.0164 1.69134 0.414794 220 210 208
-0.27987 1.33939 -0.0391363 198 176 172
-0.14406 1.36421 -0.0174253 188 166 159
-0.0708301 1.38362 0.0187297 84 60 50
0.97009 1.66019 0.387636 225 218 216
0.98833 1.67003 0.40109 66 45 39
1.00726 1.6749 0.413472 202 188 185
1.01415 1.68155 0.421462 236 232 230
-0.24476 1.33005 -0.0318939 195 171 168
-0.22024 1.32826 -0.0287524 146 110 104
-0.0762501 1.37345 0.0232335 85 61 52
-0.0643799 1.37262 0.0177147 96 70 60
0.96588 1.64784 0.392247 228 222 220
0.99265 1.65936 0.403898 93 68 63
0.98549 1.6591 0.399475 71 47 42
1.003 1.66317 0.409238 183 163 160
1.00079 1.66427 0.41024 161 138 135
-0.22479 1.31774 -0.0285226 182 156 152
-0.19139 1.33127 -0.0158503 93 65 59
-0.14034 1.33881 -0.0102512 118 84 74
-0.13279 1.33474 -0.0138837 111 78 67
-0.1333 1.33503 -0.013781 112 78 68
-0.08377 1.35907 0.0179228 90 64 55
0.96594 1.64611 0.40404 226 219 217
0.97779 1.64616 0.40137 88 64 59
0.984 1.64767 0.406876 73 49 44
0.99754 1.65353 0.415698 181 164 160
-0.13831 1.32109 -0.0147467 93 64 56
0.95517 1.62673 0.397197 232 227 226
0.95505 1.62668 0.397166 232 227 226
0.95956 1.63636 0.398367 222 216 214
0.97185 1.63647 0.402839 126 104 99
0.99047 1.63643 0.407198 122 98 93
-0.132 1.30978 -0.0128151 88 61 53
0.96638 1.62586 0.400807 138 119 116
0.98455 1.62587 0.405838 95 72 67
0.96029 1.59155 0.394498 109 88 86
0.97079 1.59142 0.396196 69 47 43
0.97258 1.59188 0.399171 79 55 51
0.97892 1.59657 0.404851 129 105 100
0.96474 1.57997 0.392596 68 46 42
0.98129 1.58288 0.402207 176 155 152
0.98663 1.58925 0.413125 224 216 215
0.95914 1.56891 0.39138 80 57 54
0.97074 1.56923 0.396064 107 84 79
0.97924 1.5702 0.402984 196 180 178
-0.02421 1.29565 0.102233 70 48 42
0.97579 1.55832 0.39772 181 162 158
0.98324 1.55968 0.407735 239 233 232
-0.14092 1.2268 -0.0153445 232 223 220
-0.1118 1.24319 0.0253796 103 73 64
0.9722 1.54781 0.40057 179 158 154
0.9786 1.54821 0.403864 226 217 215
0.95827 1.53537 0.384699 75 53 47
0.96963 1.53555 0.391971 145 120 115
0.98094 1.53576 0.398984 235 228 226
-0.12877 1.18832 -6.24824e-06 171 143 137
1.03104 1.53683 0.436637 231 224 222
-0.13771 1.1786 0.00418188 234 226 224
0.25627 1.18009 -0.123929 222 212 210
0.95733 1.4986 0.381974 112 81 74
0.96485 1.50486 0.39132 166 140 135
1.0027 1.51651 0.418534 232 224 221
0.22319 1.16903 -0.121145 151 114 109
0.91709 1.46811 0.354393 182 162 158
0.95428 1.48581 0.38434 132 95 87
1.01021 1.51573 0.439426 146 110 103
1.03774 1.52406 0.451424 108 75 65
-0.12948 1.14786 -0.00642025 170 141 132
0.24107 1.16689 -0.103647 215 197 194
0.92272 1.45985 0.362927 118 83 75
0.96853 1.48318 0.400803 139 97 87
0.97854 1.48856 0.40737 141 102 91
1.02887 1.51964 0.454278 111 76 67
-0.25566 1.14099 0.0585314 232 225 222
-0.13412 1.13786 -0.00504484 202 181 174
-0.0612102 1.16435 0.0453752 99 69 58
0.19577 1.14924 -0.0861603 110 77 71
0.20851 1.15557 -0.0903843 164 126 121
0.89281 1.44466 0.351867 218 204 201
0.96281 1.46491 0.392992 128 84 74
0.98076 1.47425 0.40323 117 78 67
0.98442 1.47918 0.418752 117 79 69
0.99336 1.48413 0.426675 123 85 75
1.00453 1.48612 0.427686 127 90 81
-0.12432 1.11951 -0.0029971 157 122 111
-0.0291901 1.15095 0.0215334 101 71 63
-0.02883 1.13862 0.00464353 103 74 65
-0.0160701 1.13912 0.0039487 101 72 65
0.167 1.14483 -0.0732257 134 92 85
0.89899 1.44054 0.360625 149 113 104
0.92852 1.45027 0.377788 114 77 68
0.94663 1.45161 0.393852 119 83 74
0.96702 1.46541 0.410668 121 84 75
0.99858 1.48792 0.442035 137 98 90
1.02641 1.50006 0.463323 161 129 121
-0.02966 1.13841 0.0170021 103 73 64
0.83939 1.40646 0.333816 219 205 201
0.88198 1.42112 0.348281 145 106 97
0.93045 1.44049 0.385115 115 80 72
0.94861 1.44393 0.400152 152 119 112
0.97405 1.45699 0.41709 183 155 150
-0.13005 1.09887 0.00935734 139 104 93
-0.0269101 1.11854 0.00528341 114 85 77
0.76603 1.35477 0.283622 206 183 177
0.86881 1.39234 0.328358 122 83 73
0.88343 1.4015 0.346305 119 81 73
0.90316 1.4155 0.361903 125 88 80
0.90543 1.42272 0.377909 129 93 84
0.91607 1.42144 0.374235 137 102 93
0.9251 1.42236 0.380035 157 122 115
0.97221 1.44452 0.411349 227 214 210
0.98259 1.45115 0.416229 226 214 211
1.08491 1.51035 0.528685 139 111 105
-0.21136 1.09408 0.0444191 82 55 49
0.14804 1.11249 -0.0304722 215 194 190
0.15294 1.11549 -0.0265605 233 222 220
0.56963 1.31505 0.266385 164 134 129
0.68783 1.32158 0.245973 239 234 232
0.71905 1.33161 0.265679 203 178 172
0.74576 1.34204 0.263328 220 205 200
0.75949 1.34415 0.283171 167 128 118
0.77776 1.35466 0.291702 167 127 118
0.77007 1.35333 0.280797 207 185 179
0.85182 1.37691 0.316186 112 73 64
0.87554 1.38247 0.332325 141 102 92
0.87862 1.39209 0.342366 131 93 84
0.88908 1.39535 0.34715 140 102 94
0.88782 1.38806 0.342684 163 125 117
0.91955 1.41069 0.377363 196 172 167
0.95556 1.42968 0.392563 229 216 214
1.07963 1.50209 0.518398 209 193 190
1.10873 1.5078 0.534378 132 104 98
-0.0202701 1.09252 0.00295044 105 76 68
0.71833 1.31773 0.264173 145 100 90
0.76992 1.34515 0.289202 152 108 97
0.7721 1.34411 0.288901 146 100 89
0.78393 1.34349 0.294015 135 90 79
0.78315 1.34172 0.288386 135 90 78
0.83338 1.36614 0.335764 111 73 62
0.84581 1.36834 0.315896 110 74 64
0.88234 1.38195 0.33997 175 136 128
0.90512 1.38533 0.354116 239 232 229
1.10159 1.49729 0.534718 204 185 182
-0.10711 1.08384 0.0519821 93 65 55
-0.0920601 1.09451 0.0535641 100 71 61
-0.07827 1.09579 0.0541078 90 63 52
-0.06848 1.09658 0.0563759 97 68 58
-0.06862 1.09702 0.0569308 97 69 59
-0.0255899 1.08285 0.00932977 105 75 67
0.77759 1.32781 0.29449 130 89 80
0.84496 1.3617 0.343238 94 62 53
0.8808 1.37184 0.338114 183 145 137
-0.22102 1.06151 0.0829605 113 76 69
-0.20666 1.06324 0.0800583 108 72 66
-0.21751 1.07029 0.076012 150 110 102
-0.22329 1.06537 0.0662797 156 114 107
-0.197 1.0673 0.0712402 114 77 69
-0.05847 1.08395 0.0521136 109 79 69
-0.04373 1.08032 0.045285 105 75 65
-0.0269501 1.07507 0.04188 113 83 72
0.10568 1.08686 0.0065616 184 149 143
0.52241 1.22719 0.16945 235 226 224
0.69509 1.28663 0.251007 122 80 70
0.72473 1.30549 0.267045 116 76 66
0.75527 1.31611 0.290508 137 98 90
0.77127 1.31784 0.295966 161 123 117
0.7688 1.31871 0.300125 165 129 123
0.7788 1.32515 0.307333 164 126 120
0.80131 1.33749 0.315823 154 115 107
-0.12264 1.05896 0.0440112 69 45 36
-0.07198 1.06315 0.0604964 82 55 45
-0.0405099 1.06317 0.0395552 110 79 70
-0.0147099 1.06386 0.0240715 113 82 73
0.02829 1.06191 0.0143607 198 172 164
0.61462 1.25604 0.232436 86 56 50
0.62881 1.25585 0.236584 100 69 62
0.74348 1.30185 0.283348 171 137 131
0.75408 1.30261 0.289766 201 176 172
0.78271 1.31805 0.300579 189 159 155
0.78737 1.31845 0.314663 225 210 208
0.79637 1.32567 0.3224 221 204 201
0.86072 1.33918 0.332892 118 86 80
0.88057 1.33981 0.334448 99 69 64
-0.07356 1.05719 0.0577336 77 51 41
-0.0746901 1.05049 0.0583634 72 46 37
-0.0285001 1.05968 0.0412887 114 81 72
-0.00496006 1.05104 0.016347 142 111 101
0.0253499 1.05544 0.018043 178 148 139
0.0155599 1.05476 0.0106354 216 196 189
0.02843 1.05178 0.0218248 137 103 93
0.06706 1.06268 0.0239895 114 78 70
0.41317 1.18055 0.152921 209 184 177
0.5087 1.19454 0.165288 139 89 77
0.50366 1.19674 0.15573 160 114 103
0.54138 1.21002 0.183901 123 77 66
0.5694 1.2218 0.197335 107 68 59
0.61093 1.2427 0.223525 103 70 63
0.63867 1.25231 0.237096 129 95 88
0.65352 1.25155 0.239849 168 133 127
0.70233 1.26274 0.251787 226 211 209
0.70065 1.2627 0.254846 229 216 214
0.86632 1.31817 0.31222 195 171 168
-0.24252 1.04413 0.122791 195 164 159
-0.23142 1.04428 0.115762 210 188 184
-0.0694401 1.0384 0.0572568 71 46 36
-0.0699 1.03835 0.0574165 71 46 36
-0.00765014 1.03509 0.0216105 108 76 65
0.0599499 1.05362 0.0275846 108 73 64
0.0597899 1.053 0.0293482 110 75 66
0.0897698 1.0556 0.0308156 201 173 166
0.13507 1.06607 0.044966 220 200 196
0.14708 1.06797 0.0375454 217 195 192
0.16465 1.07394 0.0466583 224 205 202
0.19827 1.09434 0.0706836 219 196 193
0.21204 1.09519 0.0623517 222 203 200
0.26537 1.10659 0.0723417 216 193 190
0.43918 1.16079 0.139573 145 89 74
0.44945 1.16524 0.14352 147 91 75
0.49995 1.18575 0.163926 132 83 70
0.52984 1.19698 0.178324 120 74 64
0.55093 1.20641 0.191374 114 73 65
0.57421 1.2066 0.191596 136 95 88
0.57869 1.21377 0.205881 140 100 93
0.87238 1.30837 0.311608 230 218 216
-0.0627301 1.0266 0.0595133 80 54 44
-0.0448501 1.03703 0.0616726 96 66 57
-0.0321701 1.03371 0.065518 104 73 62
-0.04421 1.03644 0.0614666 95 66 56
0.03372 1.03931 0.0487157 153 112 101
0.07055 1.04253 0.0363891 130 92 83
0.0655799 1.04646 0.0396902 130 94 85
0.1015 1.05418 0.0393012 216 193 187
0.0897 1.04533 0.0377685 177 145 138
0.11034 1.05303 0.0430693 213 186 181
0.15281 1.07183 0.0803981 186 149 143
0.18004 1.06731 0.044679 205 174 169
0.20558 1.08896 0.0761975 203 174 170
0.25731 1.09576 0.0719783 193 160 154
0.40065 1.13973 0.126472 142 90 76
0.41161 1.14521 0.131989 138 86 72
0.47619 1.15464 0.142519 113 69 58
0.49076 1.16775 0.163257 121 78 68
0.51898 1.18333 0.176771 124 82 73
0.51813 1.1832 0.171139 121 77 68
0.53011 1.18176 0.181575 152 111 104
0.56019 1.19128 0.189575 168 130 123
0.58419 1.20379 0.210207 203 177 173
-0.12226 0.991966 0.0218389 194 163 159
-0.0690501 1.01674 0.0605302 84 55 45
-0.05654 1.01668 0.0632496 79 52 42
-0.05073 1.02722 0.0636799 81 53 43
-0.0499701 1.02734 0.0623012 81 54 43
-0.04989 1.02731 0.0618411 81 54 43
-0.03842 1.02736 0.0669016 96 66 56
-0.0386701 1.02795 0.0667481 96 66 56
-0.0275199 1.02933 0.0603922 106 75 64
0.0145299 1.02957 0.0697349 115 79 67
0.10044 1.0438 0.0449826 182 149 141
0.18101 1.06573 0.0643637 172 130 121
0.39758 1.12739 0.123662 120 74 62
0.41114 1.13539 0.140267 121 77 66
0.42852 1.14166 0.138243 120 75 64
0.442 1.14571 0.153456 125 82 72
0.44457 1.13816 0.137486 125 82 73
0.49304 1.1576 0.168481 157 119 112
0.49919 1.16692 0.172279 144 104 96
0.51037 1.16723 0.178682 178 144 138
0.53179 1.172 0.193583 224 208 205
0.56477 1.18138 0.192851 225 208 206
0.56366 1.18821 0.205254 229 215 212
0.9366 1.32282 0.372523 179 150 146
-0.38642 1.029 0.238758 235 226 224
-0.0636101 1.00582 0.0640162 79 51 40
-0.0667501 0.996013 0.0536127 89 59 49
-0.0452301 1.01647 0.0683479 86 58 47
-0.0442901 1.01672 0.0671703 87 58 48
0.11137 1.0367 0.0657696 127 79 68
0.13656 1.04993 0.0880093 132 81 70
0.17477 1.05224 0.0840231 114 65 53
0.23942 1.07088 0.105569 103 57 47
0.25166 1.07762 0.09856 123 69 56
0.29221 1.09299 0.113722 108 61 51
0.40867 1.11759 0.13238 157 116 108
0.53879 1.17022 0.193235 237 226 225
-0.05934 0.994813 0.0688812 84 54 44
-0.0578702 0.994764 0.0678107 89 59 48
-0.0460701 0.994329 0.0721961 114 79 68
0.02139 1.00195 0.0585752 102 67 56
0.08869 1.02296 0.0718059 92 54 44
0.09093 1.02561 0.0743038 95 56 46
0.11781 1.02533 0.0782712 98 58 48
0.10429 1.02536 0.0762515 96 57 48
0.12531 1.04067 0.0872324 112 65 53
0.2338 1.06701 0.103349 104 60 49
0.34803 1.09123 0.128174 167 129 124
0.37025 1.10643 0.139684 160 123 117
0.96301 1.30896 0.375657 231 218 216
-0.12244 0.952474 0.00941458 211 186 181
-0.0552001 0.981559 0.0711926 97 64 53
0.02703 0.987224 0.0563809 86 57 48
0.0601699 1.00071 0.072343 105 73 64
0.07605 1.00594 0.0788383 110 77 69
0.13675 1.03579 0.0964214 106 67 58
0.13345 1.02062 0.0888325 126 88 81
0.28307 1.05939 0.11134 202 174 171
0.285 1.07206 0.143334 208 182 179
0.33203 1.07359 0.119599 202 174 170
0.33107 1.07044 0.120066 212 187 184
0.36854 1.08908 0.134002 214 190 187
0.3955 1.09207 0.145974 232 218 216
-0.05179 0.970431 0.072766 102 68 58
-0.0436301 0.971337 0.0731656 87 55 45
-0.03687 0.970813 0.0716599 74 46 37
0.0413899 0.990516 0.0599957 97 66 58
0.03232 0.974167 0.0493039 134 101 93
0.0341699 0.979766 0.0580128 131 97 89
0.05971 0.991129 0.0797733 169 134 128
0.0465899 0.986416 0.0580625 119 85 77
0.0727899 1.00362 0.0888744 151 117 110
0.09167 1.00689 0.0992694 178 146 140
0.12601 1.01722 0.100048 166 129 123
0.14965 1.02195 0.107378 192 170 167
0.17121 1.02555 0.111595 197 166 163
0.20496 1.0417 0.133846 211 184 181
0.2049 1.03748 0.11792 201 169 165
0.28804 1.06881 0.161521 226 207 205
0.2946 1.06002 0.118437 215 190 187
0.31972 1.06588 0.131699 234 220 218
0.07425 0.997557 0.101942 206 177 172
0.10019 1.00469 0.115587 213 188 184
0.12587 1.0163 0.13515 203 171 167
0.12575 1.01134 0.113026 208 181 178
0.14277 1.01459 0.121231 207 177 173
0.15547 1.01935 0.11595 206 180 177
0.23 1.03266 0.12149 219 194 193
-0.09904 0.935667 0.0557709 143 107 99
0.09566 0.993746 0.118273 205 175 172
0.0250499 0.918486 0.0328899 194 158 154
-0.0309701 0.908602 0.0599876 85 55 45
0.0189099 0.906947 0.0355792 176 134 129
-0.42654 0.951184 0.34931 200 165 161
-0.0358501 0.898605 0.0672438 81 52 42
-0.0200901 0.898328 0.0545201 107 73 64
0.01249 0.895065 0.0376751 167 131 124
0.02794 0.894082 0.0312543 198 164 160
-0.40036 0.944121 0.340005 204 162 160
-0.03789 0.878018 0.0592077 88 56 46
0.0181 0.864925 0.0155081 195 159 154
0.0276499 0.879753 0.027194 193 156 152
0.0258 0.880298 0.0286798 192 155 150
-0.03107 0.866161 0.0579633 98 65 56
-0.00708008 0.844891 0.00624794 126 90 81
-0.12149 0.808973 0.0115918 190 149 142
-0.08938 0.826389 0.0206448 99 66 57
-0.0871201 0.831283 0.0288666 101 67 59
-0.05551 0.852139 0.0637768 100 66 56
-0.03128 0.850774 0.0518519 88 57 48
0.00374985 0.844362 0.0290837 135 98 91
-0.10841 0.808738 0.0148997 139 98 91
-0.10716 0.812276 0.0170769 132 92 85
-0.09484 0.808886 0.0151511 106 72 65
-0.09426 0.813454 0.0162691 105 72 64
-0.0734 0.816334 0.0373203 101 69 59
-0.0688901 0.825063 0.0479623 100 67 59
-0.0615799 0.839454 0.061294 101 67 59
-0.0813301 0.804268 0.0378043 104 71 63
-0.10622 0.772164 0.016047 148 108 101
-0.0950701 0.775249 0.0166091 102 68 60
-0.04581 0.819115 0.0687714 99 68 59
-0.10595 0.771669 0.0156216 146 106 99
-0.0557301 0.800262 0.0575231 94 63 55
-0.10344 0.738812 0.0265683 138 99 91
-0.0964601 0.74084 0.024919 105 70 62
-0.0914102 0.750254 0.0207278 96 63 55
0.01338 0.768777 0.0310923 146 109 102
0.00313997 0.749451 0.0134086 114 79 72
-0.0929601 0.712171 0.00365781 117 82 75
-0.11549 0.838717 0.338891 192 150 145
0.02845 0.723628 0.0297392 187 144 139
0.03214 0.715602 0.0226648 189 146 140
0.0281699 0.699617 0.0316179 189 147 141
0.00706005 0.690323 0.02435 123 88 81
0.0327699 0.691429 0.0247316 191 148 143
-0.14793 0.796727 0.395065 177 133 128
-0.14888 0.78168 0.393747 184 140 135
-0.14888 0.78168 0.393747 184 140 135
0.0277901 0.63742 0.0472977 177 135 129
0.0393999 0.620762 0.0316819 193 150 145
-0.00388002 0.625933 0.0640979 110 76 66
0.03426 0.598507 0.0206384 193 149 145
-0.00547004 0.58284 0.0431258 93 64 54
0.0386798 0.56699 0.0249587 182 140 133
-0.0327601 0.554225 0.0922287 118 81 71
-0.16514 0.43506 -0.0425967 182 139 133
-0.15337 0.435853 -0.0447381 180 137 130
-0.14104 0.42796 -0.0407708 156 115 108
-0.1445 0.42734 -0.0407172 161 119 112
-0.0339501 0.516248 0.0917209 90 58 49
-0.02707 0.52847 0.0915489 84 52 43
-0.17091 0.411184 -0.0325761 182 138 131
-0.1519 0.419803 -0.0333857 151 110 103
-0.15253 0.417262 -0.0400025 159 118 111
-0.13929 0.417242 -0.0333123 107 73 66
-0.1422 0.416593 -0.0333892 110 75 68
-0.0332701 0.515086 0.091919 89 57 48
-0.0195501 0.5149 0.0924268 86 56 46
-0.16626 0.40106 -0.0255415 182 138 131
-0.13605 0.406246 -0.0270776 98 68 61
-0.14711 0.407499 -0.0311946 123 87 80
-0.12717 0.403762 -0.0266935 92 64 58
-0.03267 0.490092 0.0921269 89 58 48
-0.02618 0.502513 0.0921674 82 52 43
-0.21257 0.380768 -0.0149836 180 136 130
-0.20522 0.38465 -0.0208832 182 139 132
-0.16694 0.390123 -0.0230462 183 139 130
-0.13448 0.393838 -0.0225171 90 60 53
-0.01951 0.490494 0.0948016 89 57 47
0.09006 0.473197 0.0352472 183 140 134
-0.24744 0.372412 0.00464003 179 136 130
-0.14187 0.383917 -0.020611 150 113 104
-0.13157 0.383618 -0.0140134 96 65 58
-0.12563 0.390409 -0.0226932 89 61 54
-0.24861 0.360991 0.0114006 180 136 130
-0.20603 0.361881 -0.000120618 148 108 102
-0.19349 0.363197 -0.00448683 176 134 128
-0.18633 0.374558 0.00410267 179 135 128
-0.12874 0.373586 -0.00533795 91 62 54
-0.13976 0.372627 -0.0148986 152 113 105
-0.19566 0.366815 0.0233927 157 116 110
-0.20554 0.355972 0.0140986 130 95 90
-0.13676 0.362935 -0.00430979 156 118 109
-0.11717 0.372775 0.00050371 78 53 47
-0.0594401 0.436257 0.0837932 91 60 50
-0.19939 0.354395 0.0252226 116 82 77
-0.18807 0.348332 0.0150086 141 105 98
-0.12515 0.361926 0.000430147 82 54 47
-0.13178 0.351997 0.00309627 148 111 103
-0.11082 0.357637 0.00794542 74 50 43
-0.0524201 0.428392 0.0946811 115 79 69
-0.20591 0.343272 0.0283163 122 88 82
-0.1181 0.346586 0.00984016 76 51 43
-0.12555 0.322236 0.0192455 127 93 83
-0.123 0.314031 0.0245099 113 80 71
-0.11884 0.311057 0.0238489 94 64 55
0.02161 0.383778 0.108245 156 115 106
-0.0237901 0.349108 0.103301 90 58 47
0.0469999 0.348778 0.067906 177 133 127
0.06039 0.345958 0.0650763 183 138 133
-0.16499 0.291718 0.0752987 181 140 132
-0.0689499 0.323813 0.0883056 84 54 43
-0.0703201 0.320534 0.0882116 86 56 46
0.0534799 0.334086 0.0661622 181 137 131
-0.0297401 0.330955 0.107262 93 60 49
-0.00156999 0.326766 0.103308 105 70 60
0.0020299 0.33111 0.100153 104 69 60
-0.11428 0.272646 0.0638584 90 62 55
-0.12144 0.260099 0.0635572 119 86 78
-0.07691 0.288016 0.0926512 83 52 41
-0.0708101 0.301351 0.0950707 74 45 35
-0.08531 0.275689 0.0884521 101 67 56
-0.0716901 0.276021 0.0940358 79 49 38
-0.1289 0.248105 0.087723 178 135 130
-0.0969901 0.255055 0.0753249 90 61 53
-0.09304 0.253368 0.0760373 88 59 52
-0.0697401 0.274621 0.094931 79 49 38
-0.02964 0.295735 0.116673 94 60 49
-0.12411 0.228308 0.0682047 175 133 126
-0.12929 0.213717 0.0711319 195 151 147
-0.0731101 0.227851 0.0660297 84 53 43
0.01214 0.253078 0.100846 103 70 62
0.0163 0.236114 0.0724466 95 64 53
-0.0313899 0.228499 0.113999 84 53 42
0.00891995 0.234062 0.0898459 106 74 65
-0.0277901 0.218251 0.120462 90 59 48
0.0165799 0.212328 0.0777477 102 70 60
-0.0775001 0.16579 0.0705499 114 78 68
-0.0332501 0.203836 0.116981 84 54 42
0.00831985 0.213129 0.106298 98 66 57
0.0201099 0.210995 0.103815 115 82 73
-0.07109 0.162496 0.0738058 87 56 45
-0.0796599 0.146521 0.0666081 128 91 81
-0.0242 0.208126 0.127526 94 63 52
-0.0278699 0.191926 0.121686 92 62 50
-0.00022006 0.204626 0.117049 95 64 55
0.00942993 0.197335 0.106533 101 70 61
0.02563 0.174159 0.0649772 105 72 63
0.04232 0.177252 0.0485087 174 133 123
0.0365999 0.169923 0.0569525 146 110 99
0.00871992 0.18051 0.110736 105 74 64
-0.06563 0.135737 0.0707455 99 67 56
-0.05639 0.137583 0.073965 90 60 48
-0.07762 0.106692 0.0663112 139 103 90
-0.0829301 0.104434 0.0679475 164 125 112
0.02723 0.121718 0.076279 96 70 58
0.0622699 0.125333 0.0768167 183 145 128
0.0741398 0.125436 0.0698474 175 137 121
0.0350199 0.106644 0.0870714 112 85 72
-0.09885 0.0509357 0.0751778 170 136 114
0.05583 0.091808 0.0761256 172 139 122
0.0573299 0.0890046 0.0764362 173 140 122
0.0545099 0.0815579 0.0837186 133 107 91
0.0573299 0.0747636 0.0640465 177 145 125
0.0622899 0.0780618 0.0842919 170 140 121
0.07834 0.0291344 0.0379372 171 142 115
0.05283 -0.042609 0.0130548 152 172 154
-0.01424 3.8445 0.0640613 198 198 194
-0.00272012 3.82396 0.0560461 94 79 72
-0.00414014 3.75425 0.0623364 88 71 66
0.0169098 3.08353 0.0219008 239 237 235
-0.01578 2.92185 -0.00870419 216 210 207
-0.12087 2.71698 -0.0478714 127 92 80
-0.13068 2.71864 -0.0524442 110 78 65
-0.13242 2.68985 -0.0534458 105 72 59
-0.12249 2.62919 -0.0508712 86 60 50
-0.1282 2.57796 -0.0547477 99 71 61
-0.13254 2.56773 -0.0585848 92 65 54
-1.25981 2.3267 -0.718975 224 220 216
-0.1278 2.3901 -0.0384139 94 66 54
-0.11716 2.33506 -0.0361802 74 49 39
-0.11899 2.31412 -0.0340494 101 71 60
-1.15319 2.10244 -0.626979 124 105 100
-0.12753 2.27584 -0.02954 107 79 69
-0.12557 2.28268 -0.0422389 109 78 67
-0.1226 2.26347 -0.0297598 100 72 62
-1.14417 2.07062 -0.623471 230 227 223
-1.0937 2.08705 -0.614339 238 235 235
-1.12985 2.06512 -0.624319 193 182 177
-1.08434 2.05483 -0.601676 113 98 91
-0.0525901 1.97175 -0.0768167 132 107 98
-0.05846 1.96275 -0.0719807 115 88 79
-0.19099 1.88897 -0.0677534 239 235 233
-0.0729101 1.9059 -0.0451746 98 64 54
0.04934 1.09002 -1.72127 110 84 80
-0.03686 1.48454 0.0150766 233 228 226
-0.13671 1.41113 -0.0160641 126 94 85
-0.13747 1.40953 -0.0166006 136 106 97
0.99682 1.62639 0.410293 216 206 204
-0.12978 1.28898 -0.00704249 77 51 42
0.95385 1.52348 0.378844 79 55 50
-0.10961 1.20788 0.0107092 95 65 56
-0.14212 1.17261 -0.00943137 237 231 229
1.00466 1.46764 0.436852 228 218 215
-0.00579 1.11247 -0.00628113 186 164 158
0.91286 1.39801 0.37678 231 222 220
0.89045 1.37255 0.344292 211 193 188
0.62577 1.23547 0.220869 154 118 112
-0.22022 1.04014 0.120728 232 223 222
0.49684 1.15448 0.154248 146 104 97
0.0250099 0.997836 0.0504716 100 66 55
0.34279 1.06851 0.137787 238 228 227
0.23876 1.03281 0.127582 228 206 207
-0.35891 0.966601 0.277087 220 197 195
-0.0462 0.893155 0.0634262 91 59 50
-0.08795 0.762821 0.0173191 102 69 60
-0.15769 0.373149 -0.00369259 180 137 130
0.0223498 0.367165 0.102641 151 111 102
-0.00613999 0.336757 0.0956217 101 67 57
-0.0612102 0.196442 0.0791316 79 49 38
-0.06461 0.147463 0.0740685 89 58 47
0.0622001 0.0574119 0.0574243 178 145 123
-0.00923014 3.85401 0.0666911 228 227 226
0.00419998 3.79556 0.0619488 89 72 66
0.00371003 3.79573 0.0623708 89 71 66
0.0132 3.79765 0.0621009 95 81 75
-0.01931 3.79506 0.0571435 179 177 174
0.0128501 3.78584 0.0733677 84 71 66
0.0144699 3.7748 0.0652016 75 64 60
0.0041399 3.77564 0.0494696 74 61 56
0.00769997 3.76863 0.0618271 70 57 51
0.00902986 3.75771 0.0624824 78 64 59
0.01999 3.75419 0.069166 136 128 124
0.0274599 3.75963 0.0745133 198 195 193
0.0100598 3.74699 0.0622303 87 72 67
0.0304499 3.74598 0.0764704 202 199 197
0.02655 3.74956 0.0698175 180 176 173
0.0195699 3.74353 0.0654841 116 106 101
0.03636 3.74445 0.0789245 237 236 235
0.01091 3.73625 0.0619377 69 54 50
0.0358899 3.7361 0.0742267 233 232 232
-9.01222e-05 3.72869 0.0590584 79 64 59
0.0119801 3.6971 0.0404765 89 71 68
0.03128 3.69464 0.0553919 184 179 177
0.0251899 3.69941 0.0547418 140 132 130
0.03211 3.68371 0.0554572 192 186 184
0.0241599 3.68871 0.0495693 124 113 110
0.0353599 3.6724 0.0621393 208 204 202
0.0267498 3.67751 0.0544423 139 130 128
0.0183799 3.67234 0.051828 82 65 62
0.0281599 3.66716 0.0573439 146 137 135
0.0408299 3.65493 0.0678967 228 227 226
-0.0229402 3.32706 0.0276812 86 58 46
-0.02297 3.32724 0.0273531 87 59 47
0.0111699 3.32783 0.0483303 87 55 41
-0.0393 3.31701 0.0177951 234 232 231
-0.01232 3.15149 0.00157129 85 46 31
-0.03351 2.95419 -0.00820522 71 42 32
-0.0318701 2.90288 -0.0143128 108 88 80
0.00777984 2.857 -0.0090132 228 226 224
-0.0983 2.78821 -0.0477959 113 84 73
-0.00312996 2.79931 0.00414352 206 196 190
-0.12144 2.77324 -0.055243 98 72 62
0.0206699 2.78937 0.0516918 191 184 180
-0.09764 2.76961 -0.0482606 85 59 49
-0.000839949 2.77587 0.0466302 108 85 76
-0.12843 2.7485 -0.0484216 111 84 73
-0.03069 2.75896 -0.0118501 72 45 35
-0.11767 2.74631 -0.0512947 108 80 69
-0.12667 2.72819 -0.0493343 137 104 91
-0.13475 2.64968 -0.0547167 98 65 54
-0.12477 2.64958 -0.0482672 105 71 60
-0.11875 2.63945 -0.0452632 83 55 45
-0.1234 2.56779 -0.0521141 91 64 54
-1.2361 2.32197 -0.704274 230 228 226
-1.25309 2.31647 -0.717662 138 124 118
-1.23586 2.31737 -0.699382 230 228 226
-1.24525 2.31762 -0.707999 179 171 166
-1.24848 2.30375 -0.704195 146 129 123
-0.12574 2.46956 -0.0537127 76 48 38
-1.24009 2.28415 -0.690109 184 175 169
-1.24194 2.27618 -0.692583 104 91 84
-1.23133 2.27994 -0.683873 235 232 229
-1.23134 2.26086 -0.684503 178 171 167
-0.0932801 2.4341 -0.0529639 117 98 90
-0.04984 2.44535 -0.0373356 219 213 210
-1.23401 2.2469 -0.689749 89 75 66
-1.25452 2.22584 -0.701101 213 211 210
-1.24473 2.2282 -0.692575 97 82 79
-1.23024 2.20037 -0.677416 100 91 92
-1.22019 2.20032 -0.672396 86 67 64
-1.1908 2.18689 -0.659616 214 209 206
-1.18728 2.17759 -0.654943 180 171 166
-0.11606 2.36002 -0.022868 97 68 56
-0.1305 2.34161 -0.0353815 79 52 41
-1.18605 2.13606 -0.650058 145 130 123
-1.1819 2.13665 -0.649292 105 90 83
-1.19037 2.14558 -0.653278 103 85 75
-0.13072 2.31427 -0.0352477 109 78 67
-1.16708 2.11592 -0.626407 131 113 104
-0.12693 2.30253 -0.0317207 104 73 61
-0.12022 2.31423 -0.0315682 99 70 59
-1.12285 2.09662 -0.626179 85 69 66
-1.12772 2.05436 -0.59164 222 216 213
-0.12029 2.24581 -0.0242943 83 57 48
-0.0890601 2.2504 -0.0388969 103 72 61
-0.10251 2.23557 -0.0317419 97 67 56
-0.0886002 2.24075 -0.0291474 103 71 60
0.0776599 2.30709 0.228191 132 119 114
-1.05556 2.03496 -0.589943 180 169 166
-1.04537 2.0349 -0.584533 235 232 231
-0.11021 2.22682 -0.023353 95 66 56
-0.12022 2.2215 -0.0293791 82 58 48
-0.09899 2.22665 -0.026545 99 69 57
-0.10391 2.2258 -0.0262239 99 69 57
-0.0928199 2.22784 -0.0327527 101 70 58
-0.0996001 2.21852 -0.0272301 101 71 59
-0.0884399 2.2184 -0.0282113 104 72 61
-0.10851 2.1987 -0.0273175 104 74 63
-0.0956001 2.2089 -0.0226208 101 71 59
-0.10173 2.20549 -0.0276164 107 76 65
-0.0985901 2.19875 -0.0248367 106 76 65
-0.0930901 2.20883 -0.0245714 99 69 58
-0.08849 2.19881 -0.0228662 94 66 55
-0.0886099 2.19761 -0.0270889 94 66 55
0.0619199 2.25656 0.202291 173 168 165
-0.13682 2.1469 -0.0347105 96 70 60
-0.11364 2.13181 0.00448368 90 66 56
-0.93487 1.93192 -0.539559 218 212 209
-0.11407 2.12466 0.0195297 115 88 78
-0.95927 1.90397 -0.555993 158 141 135
-0.91573 1.91676 -0.546468 227 223 220
-0.94123 1.88356 -0.554616 179 165 157
-0.92456 1.87169 -0.54913 194 182 179
-0.86664 1.87325 -0.541224 181 170 165
-0.88753 1.86212 -0.5394 107 81 70
-0.83046 1.86327 -0.530348 225 218 216
-0.06218 2.0426 -0.110267 180 157 150
-0.86349 1.84793 -0.547399 109 82 77
-0.82377 1.85081 -0.535018 158 141 136
-0.82222 1.85146 -0.532601 158 141 136
-0.86172 1.83539 -0.548461 139 117 114
-0.84726 1.83453 -0.55467 100 75 71
-0.84327 1.8249 -0.54858 150 130 123
-0.82911 1.82644 -0.548974 96 71 63
-0.82972 1.83908 -0.537742 91 66 58
-0.81572 1.83767 -0.543786 93 71 64
-0.81709 1.83849 -0.537408 93 69 61
-0.79984 1.83251 -0.543431 80 58 50
-0.77933 1.84625 -0.527446 164 152 151
-0.81715 1.82184 -0.549963 85 61 54
-0.8207 1.80822 -0.525234 206 195 191
-0.1773 1.91111 -0.0719216 82 55 45
-0.1707 1.90049 -0.0723127 79 54 44
-0.12649 1.91822 -0.0117938 107 71 60
-0.0485601 1.92056 -0.045691 198 183 177
-0.15549 1.87898 -0.0753982 77 48 38
-0.11992 1.8756 -0.00955013 91 59 47
-0.15621 1.83752 -0.0520713 97 64 52
-0.16019 1.83069 -0.0470122 107 75 62
-0.11875 1.85463 -0.00236936 98 64 52
-0.1703 1.81651 -0.0529813 179 160 149
-0.1608 1.81672 -0.0477789 112 82 71
-0.11664 1.83107 -0.00203568 96 60 48
-0.16101 1.80705 -0.0410496 119 89 77
-0.15192 1.81094 -0.0344486 99 64 51
-0.0476301 1.83133 0.0130379 77 49 39
-0.15756 1.79663 -0.0418387 108 75 63
-0.11359 1.81045 -0.00714183 94 60 49
-0.0611401 1.81127 -0.0262145 97 69 62
-0.0369999 1.82365 0.0200774 87 60 50
-0.12964 1.72837 -0.014492 98 63 51
-0.13006 1.72882 -0.0140872 98 64 52
-0.10965 1.73945 -0.00878573 109 74 62
-0.15794 1.7096 -0.0474104 140 117 109
-0.16554 1.69696 -0.0543033 222 213 209
-0.16561 1.69754 -0.0523669 218 209 205
-0.16976 1.68335 -0.0588559 236 230 228
-0.15976 1.68728 -0.0482742 174 156 149
-0.17272 1.67077 -0.0600477 239 233 231
-0.16168 1.32388 -1.03563 235 231 229
-0.10881 1.6502 -0.0061301 95 63 53
-0.10519 1.64119 0.00132574 97 64 54
-0.10568 1.64115 0.0015357 97 64 54
-0.11054 1.62912 -0.00202039 87 55 44
0.0592599 1.10993 -1.73964 144 127 123
-0.0961301 1.61923 0.00898652 100 66 56
-0.10215 1.58998 0.00478988 89 57 47
-0.0980101 1.22862 -0.941776 164 141 138
-0.0860801 1.20799 -0.91153 128 99 94
-0.06846 1.21324 -0.913715 78 54 48
-0.0629501 1.20721 -0.894517 147 121 117
-0.10103 1.48709 0.0175534 87 56 45
-0.0869501 1.48265 0.0143863 112 79 68
-0.0620201 1.46774 0.00808001 78 51 42
1.02191 1.75777 0.407219 121 93 86
-0.07581 1.44625 0.0187657 81 56 48
-0.0618501 1.45458 0.00900227 75 50 42
-0.1316 1.4188 -0.0136638 102 72 63
-0.13305 1.41221 -0.0164429 106 76 67
1.03768 1.74496 0.413435 223 216 213
-0.1531 1.39902 -0.0177111 217 204 200
-0.14328 1.39756 -0.015706 191 166 159
1.0299 1.72054 0.41284 215 206 203
-0.27673 1.33578 -0.0252236 215 200 197
-0.13297 1.3747 -0.00940514 124 91 82
-0.13859 1.3637 -0.0115905 148 117 107
1.17105 1.85519 0.78297 64 42 36
-0.27017 1.33195 -0.0267438 228 217 214
-0.25655 1.32589 -0.0226672 239 231 229
-0.13023 1.36343 -0.00320287 107 76 66
0.98066 1.66335 0.392029 144 128 124
0.99592 1.64582 0.404946 144 121 115
0.9843 1.63561 0.40489 85 61 55
0.99386 1.641 0.412707 169 150 146
1.14205 1.76679 0.71009 160 145 141
-0.14706 1.27314 -0.0115789 188 168 162
0.98219 1.60945 0.403425 115 92 87
0.98738 1.60233 0.412692 209 199 196
0.98763 1.60203 0.414009 216 207 204
-0.12704 1.23779 -0.00871879 127 93 85
0.94277 1.52376 0.372907 112 89 84
-0.14194 1.17253 -0.00995203 237 231 229
-0.12999 1.17159 -0.0066419 166 139 133
0.94391 1.50015 0.37838 97 67 61
-0.13595 1.1602 -0.00813126 203 186 180
1.05885 1.54427 0.471067 124 92 83
-0.0805302 1.17395 0.0441058 89 60 49
0.92268 1.47362 0.364071 128 101 94
0.94418 1.48274 0.377457 97 67 60
0.99854 1.50517 0.413804 179 151 145
-0.18334 1.13386 0.0349054 211 198 195
-0.12001 1.13454 -0.00799991 123 88 78
0.16667 1.14969 -0.078375 135 92 87
0.16868 1.15285 -0.0835722 137 97 90
0.9702 1.4835 0.398757 140 98 88
-0.11112 1.12011 -0.000830653 101 69 60
0.88926 1.4362 0.354679 173 143 136
0.99114 1.48356 0.431789 130 91 82
0.8699 1.41841 0.332921 201 180 174
0.88744 1.42268 0.347467 143 104 95
0.89039 1.42385 0.35434 135 95 85
0.97737 1.46773 0.422113 148 112 104
0.99513 1.47456 0.436335 176 146 140
1.01825 1.48645 0.45061 189 165 159
1.0545 1.52033 0.514879 144 114 107
0.77495 1.36477 0.288297 228 216 212
0.89296 1.41099 0.354625 117 80 72
0.92231 1.43325 0.376629 116 80 72
0.96624 1.45263 0.407744 165 131 125
0.98719 1.45581 0.421718 224 211 208
1.07797 1.51947 0.52241 107 77 70
1.0899 1.52176 0.529114 73 49 43
-0.21621 1.0815 0.0473779 102 70 62
-0.20292 1.08533 0.0525381 90 61 55
-0.19373 1.07201 0.0594089 113 78 70
-0.1176 1.08672 0.0631032 84 57 47
-0.08005 1.09612 0.0560612 89 62 51
-0.0522401 1.09512 0.0491905 115 83 74
0.7318 1.33465 0.267681 186 157 150
0.76189 1.34362 0.281815 165 126 116
0.78828 1.35458 0.298441 149 105 93
0.80752 1.36496 0.30841 149 107 94
0.89963 1.39904 0.35292 159 123 115
0.91059 1.40554 0.364418 170 137 129
1.09015 1.4982 0.520747 195 177 173
1.10504 1.50894 0.53766 132 103 97
-0.19216 1.06708 0.0765382 104 69 61
-0.11963 1.07814 0.0520828 80 53 43
-0.0280201 1.07614 0.0215302 108 77 69
0.0341599 1.08181 0.000248412 235 226 223
0.0388899 1.08746 1.76746e-05 233 222 219
0.74648 1.32247 0.279984 120 78 68
0.76588 1.32797 0.291692 119 79 70
1.11382 1.49707 0.538696 207 188 184
-0.0901201 1.07345 0.0581041 94 66 56
-0.08846 1.07431 0.0588232 96 68 58
-0.00335002 1.06423 0.0201355 176 148 140
0.27582 1.12079 0.0376884 216 195 193
0.47851 1.21044 0.158014 238 230 228
0.49479 1.21 0.156489 233 222 219
0.69084 1.29343 0.245078 131 84 73
0.74625 1.30874 0.27944 135 95 87
0.81773 1.33981 0.325418 175 139 132
0.82798 1.35061 0.328641 120 80 72
0.83635 1.35265 0.336783 106 70 61
0.88464 1.36106 0.340281 125 91 83
0.89648 1.36139 0.344775 156 130 124
-0.0831602 1.06242 0.0588984 78 51 41
0.68643 1.27768 0.246113 122 83 73
0.72646 1.29236 0.268638 161 122 116
0.73767 1.29971 0.272625 150 111 103
0.76494 1.30693 0.295412 207 186 182
0.84318 1.34109 0.333662 136 102 96
0.88108 1.34863 0.334031 102 71 64
-0.0777001 1.05083 0.058057 73 47 37
0.51937 1.19557 0.171629 129 80 69
0.59173 1.22962 0.213088 111 73 65
0.68971 1.26169 0.243585 195 167 163
0.86106 1.32185 0.31852 206 185 181
0.93256 1.3566 0.364156 175 155 152
-0.0761301 1.02669 0.0576445 78 50 40
-0.0765099 1.02771 0.0583551 77 49 39
-0.0221601 1.03523 0.0338125 107 76 66
0.55998 1.20051 0.190542 135 94 85
0.59027 1.21806 0.216027 166 131 125
0.58717 1.21068 0.203939 166 127 120
0.58056 1.21567 0.205372 134 94 86
0.71223 1.26773 0.2589 234 225 223
0.8815 1.32098 0.31775 163 133 129
-0.0694401 1.01669 0.0601896 84 55 45
-0.07054 1.01545 0.0610369 86 57 46
-0.07039 1.01623 0.0607647 86 56 46
-0.00826001 1.02957 0.0403736 121 87 76
0.0197899 1.03487 0.0597701 127 89 77
0.0197899 1.03487 0.0597701 127 89 77
0.24618 1.08768 0.0758341 165 122 113
0.24724 1.08621 0.0686181 170 129 121
0.24724 1.08621 0.0686181 170 129 121
0.54521 1.19433 0.188027 132 91 83
0.54208 1.18599 0.181829 152 112 104
0.55342 1.19201 0.190283 155 117 109
0.56908 1.19416 0.198866 189 159 154
0.60205 1.21957 0.225033 201 177 173
0.87737 1.30797 0.313224 238 230 229
0.95985 1.34334 0.358836 146 125 122
0.96614 1.35031 0.374531 210 200 197
0.08009 1.03605 0.0736329 122 80 69
0.0908299 1.03907 0.0522835 142 100 90
0.1113 1.04258 0.0526402 155 113 103
0.26823 1.0813 0.0921781 135 80 67
0.26924 1.08299 0.0763949 147 95 84
0.32287 1.10762 0.116525 112 66 56
0.34224 1.10709 0.12562 104 65 57
0.53913 1.1813 0.195471 205 181 177
0.53249 1.17078 0.18804 216 198 194
-0.10725 0.96067 0.0165208 127 89 81
-0.0527902 1.00642 0.0702226 91 61 50
0.39781 1.11183 0.13878 179 141 136
0.52432 1.16226 0.186871 233 221 219
0.97971 1.32059 0.373999 194 175 172
0.0138099 0.988421 0.0557134 81 52 43
0.01983 1.00254 0.0608617 99 66 55
0.07516 1.01237 0.0605445 89 55 46
0.23079 1.06073 0.116874 152 117 110
0.38535 1.1062 0.148022 217 196 192
0.95284 1.31424 0.373163 203 183 180
-0.10977 0.936595 0.00820826 144 105 98
0.0141799 0.978484 0.0572894 80 52 45
0.0374999 0.9918 0.0586992 89 59 50
0.0669799 0.992191 0.0672034 149 112 105
0.34438 1.07159 0.122468 230 215 213
0.36119 1.07693 0.132665 225 207 205
0.36197 1.07997 0.129296 219 200 197
0.39274 1.09862 0.159233 239 230 228
-0.0847302 0.956532 0.0659301 95 61 51
-0.0796001 0.958318 0.0672988 83 52 41
0.00739002 0.966222 0.0545811 75 50 43
0.0211699 0.965551 0.0584143 149 114 107
0.04879 0.982427 0.0770718 181 146 139
0.0781 1.00829 0.110845 199 171 166
0.0141499 0.953758 0.0567505 149 115 108
0.0604 0.986412 0.0966845 205 176 170
0.0859599 0.998363 0.113781 211 184 180
0.11335 1.00667 0.120428 228 211 209
0.0034399 0.939123 0.052337 143 110 103
-0.0618801 0.893016 0.0642249 87 56 46
-0.04845 0.892383 0.0607381 91 58 50
-0.05283 0.876405 0.0604306 100 66 58
-0.12564 0.813894 -0.0248086 182 142 136
-0.0990801 0.815752 0.00795277 104 70 63
-0.05726 0.823782 0.0556793 94 62 53
-0.0130901 0.772674 0.0275628 102 68 60
-0.0776501 0.694665 -0.0120565 97 65 57
-0.13868 0.630378 0.16397 205 176 173
-0.14357 0.438045 -0.0488057 182 138 131
-0.15044 0.44311 -0.0387719 181 138 132
-0.14912 0.419565 -0.0383885 143 103 96
-0.13113 0.428532 -0.0323343 119 83 75
-0.14791 0.406832 -0.0314614 127 92 84
-0.20144 0.379026 0.00619949 175 132 125
-0.0515401 0.468248 0.0962386 99 66 56
-0.0443001 0.44054 0.0949885 107 72 62
-0.11423 0.333391 0.0140719 90 62 54
-0.19981 0.30648 0.0646428 170 127 119
-0.06388 0.325452 0.0941934 76 47 36
-0.06565 0.314072 0.096964 74 45 35
-0.10425 0.277265 0.0773777 92 64 56
-0.08126 0.299415 0.0860802 94 63 52
-0.0887101 0.288306 0.0859238 117 83 72
-0.0844901 0.275963 0.0928249 93 60 49
-0.0633299 0.29034 0.103736 76 46 35
-0.13045 0.242189 0.0663496 176 133 127
-0.05233 0.277776 0.112645 91 57 44
-0.0387301 0.28379 0.117968 98 64 52
0.0222099 0.201784 0.0847578 103 70 61
-0.00902009 0.18923 0.117538 99 68 58
-0.07265 0.123096 0.0736431 103 71 59
0.02455 0.141773 0.09503 106 77 66
0.000370026 3.5853 0.106789 70 49 43
-0.04019 3.29698 0.0183555 228 226 224
-0.0504301 3.09872 -0.0225627 197 190 188
-0.12144 2.75797 -0.0510324 91 67 57
-0.12465 2.48877 -0.0620021 84 55 45
-0.12621 2.30451 -0.0302298 101 71 59
-0.0857201 2.26109 -0.041155 105 73 62
-0.12242 2.23579 -0.0275194 69 46 37
-1.07464 2.0415 -0.601265 100 82 75
-0.0822802 2.20805 -0.0256096 101 71 59
-1.05018 2.02477 -0.58825 165 152 149
-0.0931899 2.1882 -0.0250273 85 58 48
-0.0950501 2.18661 -0.0281441 93 64 54
-1.0214 1.94541 -0.557559 216 209 204
-0.79133 1.85026 -0.542175 202 195 192
-0.83942 1.81203 -0.544065 232 227 224
-0.82723 1.81353 -0.55086 181 167 161
-0.11945 1.91978 -0.0139076 95 63 50
-0.11064 1.77473 -0.00788598 89 57 45
-0.16496 1.68293 -0.0574301 236 231 228
-0.15738 1.66998 -0.060086 188 168 163
-0.15495 1.65997 -0.0561108 157 130 123
-0.0691102 1.61661 -0.011292 111 80 71
-0.10217 1.60572 0.00594467 100 66 55
-0.05422 1.60083 -0.0332985 127 101 95
0.02952 1.04992 -1.66459 165 149 146
0.04198 1.04968 -1.67343 163 149 145
1.02129 1.77981 0.397519 239 235 230
-0.0977302 1.52111 0.0148091 104 68 57
1.04222 1.78073 0.404679 181 155 145
1.03784 1.76903 0.416447 157 134 125
-0.46797 1.40545 -0.0370746 233 226 226
1.16051 1.86928 0.789968 104 85 80
-0.0534201 1.43467 0.00768366 81 55 48
-0.15966 1.40752 -0.0272323 237 230 228
1.06367 1.5554 0.472723 157 127 120
0.97395 1.49746 0.397722 214 196 191
1.02467 1.50764 0.453102 115 80 71
1.02657 1.49015 0.455899 203 184 177
0.76419 1.32882 0.291531 117 77 68
-0.12819 1.07737 0.0436242 86 57 47
-0.1356 1.07846 0.046986 91 61 50
0.68015 1.27606 0.241855 114 76 67
-0.0820901 1.06161 0.0577698 77 50 41
0.20038 1.08529 0.0533078 224 206 203
0.21399 1.0968 0.0577086 224 206 203
0.59158 1.21423 0.209587 169 134 128
0.0199699 1.04236 0.0368571 132 96 86
0.59496 1.20489 0.217119 237 229 226
0.05547 1.04525 0.0533086 152 110 99
0.1288 1.0312 0.0833927 103 61 51
0.00779986 0.990347 0.0551637 82 53 44
-0.000420094 0.977877 0.053203 68 42 34
-0.0124102 0.926339 0.0412524 88 58 49
-0.05444 0.905685 0.0654377 87 56 46
-0.0893199 0.789304 0.0199565 98 66 58
-0.0446 0.755614 0.0494553 106 72 63
-0.13096 0.839804 0.350664 178 135 128
-0.12061 0.383855 -0.00614075 85 58 51
-0.11185 0.322283 0.0205559 101 72 64
-0.04426 0.382615 0.0998821 105 71 60
-0.0811601 0.345591 0.0733532 101 70 60
-0.15521 0.263326 0.0561906 181 140 131
-0.0971501 0.104201 0.0673351 176 137 123
0.00663996 3.82406 0.0655577 98 80 73
0.00856996 3.78026 0.0582484 71 57 51
0.01999 3.76506 0.0693099 130 124 120
0.01213 3.72585 0.0598889 72 58 55
0.0139999 3.71435 0.0601886 78 62 57
0.00550985 3.70213 0.0566 76 59 54
0.0327098 3.70526 0.0618435 230 229 229
0.0353499 3.6613 0.063623 198 194 192
0.0341101 3.65008 0.0641454 195 190 189
0.0295 3.65624 0.0631398 173 167 166
-0.0350401 3.30641 0.0237446 197 191 187
-0.00267005 3.09126 0.00974104 89 57 45
0.00144005 3.07415 0.015722 130 114 107
-0.0270801 3.06247 0.00854931 87 56 44
-0.0223901 2.95485 -0.00925839 81 57 50
-0.0162602 2.9444 -0.0050379 184 176 173
-0.12415 2.76755 -0.0592429 82 59 50
-0.12579 2.7067 -0.0488492 101 68 56
-1.26059 2.31573 -0.72422 153 137 131
-0.13809 2.40965 -0.0456397 111 77 64
-0.14605 2.4002 -0.0418584 123 88 75
-0.13327 2.39953 -0.0410852 107 76 63
-0.13948 2.39007 -0.0396346 98 69 56
-0.14074 2.39038 -0.0386309 99 69 57
-0.11727 2.39005 -0.0343344 101 72 59
-0.13342 2.38006 -0.036429 86 60 49
-0.12196 2.37892 -0.0373212 91 62 50
-1.23708 2.22187 -0.688501 85 65 57
-0.13051 2.36963 -0.0309479 88 60 48
-1.21395 2.21877 -0.672553 194 186 180
-0.11626 2.34881 -0.028176 76 50 39
-0.13745 2.26874 -0.0223342 95 69 59
-0.14209 2.27834 -0.0261334 110 82 72
-0.13118 2.24584 -0.0289239 63 42 33
-0.0805302 2.24148 -0.0433208 116 83 71
-0.11431 2.23583 -0.0215787 90 62 52
-0.07921 2.23285 -0.0309102 119 85 73
-0.08269 2.22791 -0.0221813 115 81 69
-0.1204 2.19463 -0.0324405 99 70 60
-0.0767 2.19792 -0.0228655 88 60 50
0.0523999 2.24897 0.195761 168 160 155
-0.13258 2.13752 -0.0300482 96 70 60
-0.13044 2.12831 -0.0241347 100 74 64
-0.12657 2.13342 0.0118209 86 63 53
-0.65754 2.39562 1.17694 182 170 165
-0.64367 2.36783 1.16315 177 167 163
-0.79718 1.8143 -0.544351 99 75 67
-0.8043 1.80662 -0.547442 172 157 150
-0.78188 1.80704 -0.509795 196 186 182
-0.7626 1.81073 -0.518237 102 78 72
-0.0808301 1.92951 -0.0440275 88 56 47
-0.0511301 1.90824 -0.04586 202 187 178
-0.16347 1.88933 -0.0731697 75 50 39
-0.13077 1.90738 -0.0133274 108 73 61
-0.13146 1.90767 -0.0136544 108 73 61
-0.0655 1.83649 -0.0206 77 54 47
0.11774 1.26987 -1.86681 231 227 226
0.11369 1.25005 -1.85612 223 219 217
-0.0574801 1.75315 -0.0152225 197 185 181
-0.12514 1.74071 -0.00879257 90 58 46
-0.15569 1.7173 -0.0544102 137 110 102
-0.17296 1.70459 -0.0612238 236 230 227
-0.14074 1.69315 -0.0514129 97 64 53
0.0482299 1.10271 -1.7364 96 70 66
-0.0858099 1.65048 -0.000286926 143 105 95
-0.10903 1.61732 0.00674618 96 62 51
-0.0459402 1.58488 -0.0278352 186 171 166
1.04553 1.79209 0.416369 207 191 183
-0.08798 1.55804 0.00474532 119 81 69
-0.08706 1.5316 0.00824855 117 78 67
1.0371 1.73043 0.411033 239 235 233
-0.12851 1.46886 -0.0232801 89 58 49
-0.09484 1.49728 0.0187101 98 65 55
1.17036 1.83928 0.770112 64 42 36
0.99003 1.68508 0.402797 70 48 42
-0.10143 1.46521 0.0193342 89 59 49
-0.04898 1.46045 0.00993354 141 118 113
0.98629 1.67274 0.403048 65 44 39
0.99341 1.67743 0.412928 100 76 70
1.00089 1.68212 0.422258 182 166 162
0.99007 1.665 0.412618 101 76 72
0.98762 1.6519 0.410341 102 77 71
-0.37572 1.3707 -0.0998322 220 212 209
-0.29407 1.36972 -0.0546998 195 181 179
1.00237 1.6364 0.410378 232 226 224
1.1358 1.7559 0.704006 168 155 151
-0.15357 1.38469 -0.0158908 234 228 225
0.99009 1.62829 0.414183 177 161 158
1.14563 1.74815 0.710675 73 49 43
-0.09042 1.39609 0.030561 80 53 44
0.99065 1.61473 0.411541 200 188 185
1.13411 1.73157 0.69134 109 87 81
-0.07568 1.38144 0.0180569 85 59 50
-0.10035 1.36483 0.0249835 90 63 53
1.04604 1.55151 0.452232 226 217 214
1.12379 1.62047 0.617513 142 115 109
1.15254 1.66554 0.721271 226 220 218
-0.14043 1.27466 -0.016663 160 129 123
1.04539 1.54321 0.460785 137 105 99
1.05894 1.5524 0.460751 180 158 152
1.07335 1.55572 0.475517 136 102 94
-0.0486 1.30935 0.100826 87 61 52
0.92717 1.48586 0.359059 166 145 141
-0.14317 1.24553 -0.0156281 232 224 222
0.91783 1.46654 0.348486 208 197 193
0.93164 1.47899 0.371308 101 70 62
0.95101 1.48806 0.379623 112 80 72
0.96079 1.49224 0.394828 167 129 120
-0.08617 1.2668 0.0500681 89 60 51
-0.0817101 1.26743 0.0512549 90 60 51
1.01615 1.505 0.444144 111 75 66
1.02723 1.49887 0.459971 173 143 135
1.06636 1.5225 0.512641 118 85 77
1.09466 1.53244 0.533797 56 36 29
0.98298 1.46559 0.41653 155 118 110
1.01584 1.4829 0.449463 206 189 184
-0.0785999 1.22108 0.044709 81 53 43
1.02078 1.47298 0.441989 236 230 227
-0.0683401 1.20919 0.0415445 82 54 45
0.88211 1.40593 0.345531 117 79 71
0.95828 1.44268 0.40853 217 203 199
0.80101 1.37155 0.286878 225 213 209
0.82722 1.38676 0.32724 158 119 109
0.72324 1.34369 0.263625 238 232 229
0.7989 1.36359 0.297785 168 128 118
-0.0664401 1.17408 0.0432769 100 69 58
-0.0578501 1.17839 0.0497426 98 67 57
0.20656 1.14512 -0.0836631 190 166 162
0.71118 1.32502 0.256189 200 175 169
-0.11183 1.13698 -0.00899437 104 72 62
0.80482 1.34365 0.320668 141 101 92
-0.11234 1.1236 -0.00623468 99 67 58
-0.07864 1.15061 0.0484416 110 78 67
0.92875 1.36471 0.3564 229 220 218
-0.0725701 1.13949 0.051265 106 74 64
0.71632 1.29093 0.256232 126 88 78
0.9116 1.35106 0.353887 92 64 58
0.14214 1.11162 -0.0160805 225 208 204
0.73898 1.28687 0.274731 225 213 209
-0.0727301 1.10737 0.050449 99 70 60
-0.0574901 1.10645 0.0500993 107 77 68
0.14014 1.10265 -0.010444 230 215 212
0.48915 1.19585 0.156411 170 132 123
0.92359 1.32463 0.355641 174 141 136
0.1049 1.09001 0.00662463 181 146 140
0.4012 1.16948 0.115303 239 234 231
0.57399 1.2204 0.200731 111 71 62
0.58443 1.22467 0.207406 110 72 63
0.93637 1.31109 0.352878 221 208 204
0.22867 1.10022 0.0456236 233 222 220
0.16235 1.08387 0.0400719 239 230 228
0.53886 1.18285 0.198057 207 185 181
0.5734 1.19741 0.20025 188 157 152
0.58556 1.19992 0.209037 223 209 206
0.40105 1.13853 0.133389 130 82 68
0.48503 1.14976 0.149988 142 100 92
0.19575 1.07911 0.0662237 201 172 165
0.32778 1.10782 0.122687 104 61 51
0.0560401 1.0443 0.0500784 153 110 99
0.14208 1.05593 0.0914322 135 84 73
0.16507 1.04662 0.0803644 111 63 50
-0.0402601 1.0064 0.0747827 106 73 61
0.04967 1.00231 0.0629994 91 59 51
-0.11913 0.960292 0.0115465 192 164 159
-0.0678301 0.981677 0.0656236 90 58 48
-0.0387402 0.981144 0.0677877 88 56 45
0.18202 1.02759 0.123557 213 192 188
-0.07285 0.969743 0.0677785 84 52 41
0.11364 1.01072 0.10557 199 168 163
-0.33902 0.989359 0.204821 232 213 212
0.03477 0.964494 0.0620131 190 154 148
0.0736499 0.989616 0.111609 209 182 178
-0.0403202 0.921683 0.0608847 76 46 36
-0.0708702 0.906345 0.0625243 101 66 56
-0.00711012 0.8979 0.048655 138 100 93
0.00597 0.883231 0.0398811 171 134 128
-0.1118 0.818937 -0.0287958 156 115 109
-0.10009 0.82126 0.00434003 103 69 61
-0.0928199 0.827321 0.012854 98 65 56
-0.0796599 0.786599 0.0347691 105 71 64
-0.0852301 0.760217 0.0300823 107 74 66
0.0155599 0.726845 0.0214826 167 125 121
0.0504398 0.551868 0.0288408 176 133 126
-0.0385501 0.453673 0.0985762 100 65 55
0.01385 0.44142 0.0882272 97 66 56
-0.0518 0.385871 0.0936359 87 56 46
-0.0701501 0.347987 0.0832684 80 51 41
-0.07933 0.322983 0.0815865 94 64 53
-0.06232 0.336622 0.09133 75 47 36
0.01987 0.345644 0.0911846 120 82 74
-0.0843301 0.310038 0.0792211 87 60 49
-0.07425 0.31119 0.0865835 92 61 51
0.00357985 0.300517 0.0897521 101 67 59
-0.11078 0.251079 0.0691832 102 72 66
-0.10906 0.262114 0.0707289 81 55 48
-0.0374801 0.298072 0.116008 106 71 58
-0.00267005 0.275652 0.105382 100 68 59
-0.0337601 0.257618 0.117094 92 58 46
-0.02438 0.243135 0.117312 98 65 54
0.0156999 0.189262 0.0924868 95 65 55
-0.02456 0.174819 0.120377 88 59 47
-0.0562301 0.126987 0.0802044 88 57 44
-0.06283 0.10483 0.0712019 88 58 46
-0.0392602 0.119676 0.11853 82 54 40
-0.0871501 0.0481433 0.0543773 167 130 112
-0.04705 0.102263 0.117737 73 47 32
-0.0432601 0.0598728 0.127074 64 42 28
-0.0882301 -0.00150305 0.068098 155 124 98
-0.0806301 0.011619 0.0698758 152 121 97
-0.06376 -0.0316063 0.110275 76 55 39
0.0016799 3.85396 0.0690606 194 192 191
0.01263 3.85408 0.0715024 231 230 229
0.01108 3.8531 0.0690321 205 203 202
0.00645995 3.84384 0.0662145 134 125 120
0.0206199 3.83404 0.0891534 235 235 234
0.0157299 3.83394 0.0718613 116 107 101
0.01756 3.81258 0.0867586 181 177 175
0.02672 3.78687 0.0694581 222 220 219
0.0251999 3.77413 0.0737452 169 165 163
-0.0476801 3.77562 -0.0191545 204 195 189
0.00212002 3.75134 0.0591658 82 66 61
0.0328801 3.71825 0.0713899 233 232 232
0.0383 3.70061 0.0609745 208 206 205
0.0327899 3.68409 0.0627514 223 219 218
0.01773 3.66115 0.0562109 87 67 66
0.0253799 3.66638 0.0580058 121 110 109
0.0269101 3.63486 0.0793472 183 173 169
0.0235701 3.6161 0.126813 218 210 207
0.02512 3.60842 0.122843 190 181 177
0.0309 3.60355 0.124502 200 194 190
0.00627995 3.59423 0.104373 78 52 43
0.02953 3.60033 0.0994264 105 81 72
