ply
format ascii 1.0
comment VCGLIB generated
element vertex 1042
property float x
property float y
property float z
property uchar red
property uchar green
property uchar blue
property uchar alpha
element face 0
property list uchar int vertex_indices
end_header
0.53534 2.07811 -0.8838699 182 163 168 255 
0.49998 2.06702 -0.9188197 254 254 255 255 
0.5345099 2.07096 -0.8722299 198 184 187 255 
0.5360299 2.07195 -0.8724697 200 187 190 255 
0.5418299 2.06799 -0.8520401 252 251 251 255 
0.49963 2.05644 -0.9065197 254 254 254 255 
0.5307399 2.05841 -0.8724101 139 116 121 255 
0.53448 2.06374 -0.8615597 215 204 206 255 
0.5388299 2.06295 -0.8640097 212 200 203 255 
0.08389997 2.257401 -0.03271989 90 58 51 255 
0.07992005 2.259219 -0.03115968 88 58 50 255 
-1.04115 2.386562 -0.46681 255 255 255 255 
0.5272399 2.05184 -0.8608101 137 113 117 255 
0.5220499 2.04639 -0.8479798 166 143 146 255 
0.0852499 2.244202 -0.03585986 101 62 53 255 
-0.8630199 2.356707 -0.3852198 255 255 255 255 
0.5312899 2.04286 -0.8225401 249 248 247 255 
0.5293599 2.03631 -0.8124397 247 244 244 255 
0.5345199 2.04228 -0.7786897 254 255 254 255 
-0.1193399 2.280874 0.03368016 254 255 254 255 
0.21301 2.224454 0.04488011 253 254 253 255 
-0.9690201 2.351399 -0.4444101 254 254 254 255 
-0.91838 2.345175 -0.40012 237 234 234 255 
-0.8546801 2.328452 -0.37863 255 255 255 255 
-0.8469601 2.331695 -0.32251 255 255 255 255 
-0.04421997 2.236837 -0.01928977 206 178 173 255 
0.3556 2.189334 0.1690399 255 255 255 255 
-0.9015501 2.326795 -0.3838499 235 232 231 255 
0.34805 2.1836 0.1293203 255 255 255 255 
0.15028 2.18661 -0.006939697 253 254 254 255 
0.15955 2.18764 0.01027031 254 254 254 255 
0.15538 2.18172 0.00449009 253 254 254 255 
0.19556 2.18028 0.03462 167 127 122 255 
-0.85918 2.292003 -0.3729298 253 253 253 255 
-0.4051001 2.264725 -0.04690007 255 255 255 255 
0.14718 2.16878 -0.01399975 248 247 246 255 
0.1584599 2.17232 -0.00796013 251 252 251 255 
0.1617999 2.16309 0.004940222 193 165 158 255 
0.1553299 2.16339 0.004670332 198 173 167 255 
0.29152 2.16851 0.1305701 255 255 255 255 
-0.58621 2.26325 -0.1935599 255 255 255 255 
-0.5689399 2.255093 -0.1997397 255 255 255 255 
0.07241988 2.16578 -0.05782013 62 39 34 255 
0.1438401 2.15725 -0.01416998 188 166 160 255 
0.15186 2.16146 -0.005529691 213 197 192 255 
0.16166 2.15073 0.004369924 162 124 115 255 
0.1759399 2.15104 0.02153988 157 138 136 255 
0.25937 2.15522 0.08719987 255 255 255 255 
-0.81586 2.270881 -0.35517 255 255 255 255 
-0.5706601 2.244511 -0.2133 254 255 255 255 
0.07596993 2.15367 -0.05722981 82 56 51 255 
0.12061 2.15396 -0.01367979 186 150 139 255 
0.12398 2.15257 -0.01529007 185 149 138 255 
0.1252499 2.14731 -0.003989986 184 148 137 255 
0.1294401 2.14613 -0.007099918 180 145 134 255 
0.14824 2.14988 -0.004989913 184 149 139 255 
0.16905 2.14458 0.01211996 123 99 95 255 
0.18452 2.13878 0.02507991 253 253 253 255 
0.1782199 2.14013 0.02675027 251 252 251 255 
0.18968 2.14466 0.03440017 254 254 254 255 
0.1953299 2.1489 0.04486007 254 255 254 255 
-0.5838501 2.23661 -0.2336801 255 255 255 255 
-0.1807201 2.16917 -0.1582101 181 156 152 255 
-0.1620901 2.1765 -0.1169999 251 250 250 255 
-0.1563401 2.17226 -0.1091497 240 238 236 255 
-0.1617301 2.17918 -0.1002501 252 252 251 255 
0.0764699 2.1432 -0.05421 98 66 59 255 
0.1657799 2.12715 0.01647014 246 244 244 255 
0.17538 2.12869 0.02491016 254 254 254 255 
0.17589 2.13118 0.03278989 254 254 254 255 
0.18598 2.13334 0.03632993 254 254 255 255 
0.1915799 2.13741 0.04771013 255 255 255 255 
-0.8111501 2.248896 -0.3260801 255 255 255 255 
-0.54989 2.217968 -0.2235997 254 254 253 255 
-0.53477 2.211423 -0.2211898 253 253 253 255 
-0.43537 2.206615 -0.1663397 246 234 230 255 
-0.15819 2.15667 -0.1678398 173 153 150 255 
-0.1617401 2.16316 -0.1288798 186 174 171 255 
-0.1361301 2.1465 -0.1509197 128 112 107 255 
0.07840991 2.13049 -0.0572198 133 96 87 255 
0.17381 2.12298 0.02437992 254 254 254 255 
0.1831299 2.12142 0.03265018 254 254 255 255 
0.19179 2.12419 0.03873033 255 255 255 255 
0.1784999 2.12283 0.04440994 255 255 255 255 
-0.56387 2.207609 -0.24104 216 209 207 255 
-0.53969 2.205899 -0.2400201 246 244 242 255 
-0.1594 2.14887 -0.1448601 104 88 85 255 
0.07135987 2.10959 -0.04770976 121 79 68 255 
0.17327 2.11311 0.03267021 255 255 254 255 
0.07414007 2.10236 -0.08114987 84 49 40 255 
0.08081007 2.09069 -0.08765011 90 51 41 255 
0.07484984 2.10672 -0.05409985 119 74 64 255 
0.15104 2.09378 0.008969967 254 255 255 255 
0.1529499 2.09939 0.01908988 255 255 254 255 
0.16221 2.10303 0.02253026 255 255 254 255 
-0.7553401 2.210821 -0.2856801 255 255 255 255 
-0.02914 2.07747 -0.25435 255 255 254 255 
-0.03315997 2.07329 -0.2570699 255 255 255 255 
0.07139993 2.08908 -0.06362992 115 71 60 255 
0.1514499 2.0816 0.008919897 255 255 255 255 
-0.73768 2.197652 -0.27259 255 255 254 255 
-0.7185299 2.196876 -0.2461799 254 254 254 255 
-0.72137 2.199963 -0.2249401 254 254 254 255 
-0.18415 2.10554 -0.1594399 255 255 255 255 
-0.01548004 2.0684 -0.1883801 255 255 255 255 
0.02022004 2.06388 -0.17535 255 255 255 255 
0.1031199 2.05176 -0.1320899 96 70 64 255 
0.1047499 2.05774 -0.1208099 97 60 52 255 
0.07562995 2.07593 -0.07650977 100 56 46 255 
0.07493997 2.074 -0.05961972 126 79 68 255 
-0.7271101 2.193823 -0.2608297 254 255 254 255 
-0.4574001 2.14948 -0.1769097 254 254 254 255 
0.09697986 2.04134 -0.1530798 253 252 252 255 
0.09470987 2.0424 -0.1245797 134 118 114 255 
0.09611988 2.04816 -0.1357797 177 167 164 255 
0.10112 2.04543 -0.1133698 97 62 54 255 
0.06730986 2.06519 -0.05352002 138 94 83 255 
0.07486987 2.06183 -0.06105977 145 101 91 255 
0.07337999 2.05919 -0.04825002 147 102 92 255 
-0.5849102 2.14902 -0.24385 151 136 133 255 
-0.47014 2.14609 -0.1685098 254 254 254 255 
-0.4570601 2.13888 -0.16971 255 255 255 255 
0.09754992 2.03431 -0.1124299 90 59 53 255 
0.06209993 2.0555 -0.04876977 167 125 116 255 
0.09401989 2.05148 -0.01188975 156 109 98 255 
-0.84325 2.17629 -0.3611701 255 255 255 255 
-0.74754 2.16158 -0.27965 114 101 105 255 
0.09296989 2.02954 -0.1208499 148 135 132 255 
0.09434986 2.02302 -0.1127198 102 79 74 255 
0.09085989 2.03752 -0.01323015 161 112 101 255 
-0.5354099 2.12746 -0.2075298 255 255 255 255 
0.07618999 2.014 -0.1544097 251 250 250 255 
0.07419991 2.02481 -0.06036979 147 106 97 255 
0.07782006 2.03006 -0.05022985 154 110 102 255 
0.08944988 2.00826 -0.1013101 91 61 54 255 
0.07572007 2.01861 -0.05020982 164 120 110 255 
-0.6638701 2.09851 -0.27226 255 255 255 255 
0.07846999 1.98672 -0.06211979 123 83 71 255 
0.0697999 1.99062 -0.04767973 141 103 94 255 
-0.76952 2.10934 -0.3018101 255 255 255 255 
-0.7831101 2.11559 -0.2799099 255 255 255 255 
-0.7744601 2.11781 -0.2745498 255 255 255 255 
-0.7706101 2.12143 -0.2644199 255 255 255 255 
-0.6700301 2.09401 -0.2737997 255 255 255 255 
-0.6503901 2.0907 -0.2702001 255 255 255 255 
0.07628989 1.97153 -0.06280977 80 54 48 255 
0.07165003 1.97763 -0.04832012 78 50 43 255 
0.07346988 1.9461 -0.03857977 119 68 56 255 
0.07393003 1.9335 -0.03822977 132 83 71 255 
1.893678 1.5421 0.0247599 251 251 250 255 
0.04983997 1.90817 -0.09422 255 255 255 255 
0.07085991 1.90778 -0.04231007 152 109 103 255 
0.07036996 1.89547 -0.04206975 147 106 98 255 
0.07300997 1.87316 -0.06127007 117 72 61 255 
0.06905007 1.88342 -0.04124005 156 115 106 255 
0.05795002 1.84153 -0.1615499 255 255 255 255 
0.0669899 1.87205 -0.03903992 186 146 137 255 
0.05786991 1.83858 -0.1591299 255 255 255 255 
0.05476999 1.84783 -0.1143502 255 255 255 255 
0.06880999 1.85303 -0.04589971 141 101 93 255 
0.06907988 1.84007 -0.04660972 151 112 105 255 
0.06882 1.82797 -0.04660972 156 117 111 255 
0.06700993 1.80884 -0.06695016 116 79 69 255 
0.07497001 1.81155 -0.05815013 142 103 94 255 
0.06516004 1.80789 -0.04103979 179 143 134 255 
0.1104999 1.79514 -0.01726993 128 92 88 255 
0.06592989 1.79384 -0.04812988 165 125 117 255 
0.06408 1.7887 -0.0353597 167 128 119 255 
0.06501985 1.77097 -0.04240974 153 112 103 255 
1.750961 1.35692 -0.04868019 252 251 251 255 
1.754238 1.36306 -0.03078973 197 182 183 255 
0.06515002 1.75809 -0.04240974 132 91 82 255 
1.740169 1.34198 -0.04974974 241 239 238 255 
0.06253004 1.74653 -0.04051002 151 111 101 255 
0.11253 1.73178 -0.0249699 141 104 99 255 
0.06061006 1.73478 -0.03992971 161 123 114 255 
1.640729 1.33644 -0.06457984 255 255 254 255 
1.714728 1.33055 -0.03984011 209 202 203 255 
0.05746984 1.72746 -0.02563986 149 113 104 255 
1.683794 1.30668 -0.05691994 246 245 245 255 
0.05808997 1.70555 -0.02858004 146 113 103 255 
1.654933 1.29796 -0.0926298 254 255 255 255 
0.05404997 1.69463 -0.02694973 111 80 67 255 
-0.7081101 2.15909 1.16184 254 255 254 255 
-0.70976 2.16778 1.17562 255 254 254 255 
-0.70976 2.16778 1.17562 255 254 254 255 
0.94426 1.45364 -0.1062201 145 127 129 255 
0.05899 1.67654 -0.03887973 112 83 69 255 
-0.71766 2.15665 1.16083 254 254 254 255 
-0.71766 2.15665 1.16083 254 254 254 255 
-0.7016101 2.14717 1.15769 243 240 240 255 
0.1234701 1.55773 -0.4115599 254 254 254 255 
0.07314992 1.65869 -0.07829986 113 90 81 255 
0.8971699 1.43459 -0.1060699 244 243 242 255 
1.439986 1.26526 -0.2557701 252 252 252 255 
1.628664 1.24753 -0.09990013 254 254 254 255 
0.1268101 1.55396 -0.3904398 255 255 255 255 
0.1291599 1.56102 -0.3785499 248 248 248 255 
0.1312599 1.55396 -0.3681401 184 181 180 255 
0.1218901 1.53167 -0.4052299 255 255 255 255 
0.1333199 1.54335 -0.3442901 140 126 126 255 
0.05650997 1.63468 -0.04483972 112 86 74 255 
0.06255007 1.64635 -0.02435002 124 100 87 255 
0.8820499 1.41237 -0.08574998 206 197 197 255 
0.1213799 1.52262 -0.4122499 255 255 255 255 
0.1211801 1.52492 -0.3811401 255 255 255 255 
0.1240399 1.53086 -0.38492 254 255 255 255 
0.12975 1.53484 -0.3599099 224 221 220 255 
0.1356399 1.54157 -0.3228701 163 147 147 255 
0.06167006 1.63435 -0.02323995 132 109 95 255 
1.479448 1.23238 -0.1848601 255 255 255 255 
0.1150799 1.51405 -0.4025501 255 255 255 255 
0.10917 1.51732 -0.3717297 255 255 255 255 
0.11519 1.52179 -0.3799299 255 255 255 255 
0.11134 1.52294 -0.3836302 255 255 255 255 
0.1243699 1.51096 -0.3762101 254 255 254 255 
0.13238 1.52085 -0.36001 236 236 236 255 
0.12466 1.52184 -0.3587698 251 252 251 255 
0.12432 1.52417 -0.3578199 251 251 250 255 
0.1254299 1.5174 -0.3649601 254 254 254 255 
0.1315598 1.52742 -0.3482598 168 162 161 255 
0.1187599 1.53467 -0.28485 100 80 80 255 
0.11902 1.54072 -0.2924298 151 129 128 255 
0.05906987 1.61537 -0.0623301 109 88 81 255 
0.05953002 1.60874 -0.04802976 120 97 87 255 
0.1194899 1.50092 -0.3702701 255 255 255 255 
0.1143 1.51228 -0.3559898 254 254 254 255 
0.1268799 1.51048 -0.3548797 253 254 253 255 
0.12661 1.50373 -0.36668 254 255 254 255 
0.12818 1.51547 -0.3478798 241 240 240 255 
0.12501 1.50512 -0.3411897 254 254 254 255 
0.09756994 1.5332 -0.26201 176 167 168 255 
0.1091399 1.53468 -0.2775801 107 91 90 255 
0.1006598 1.53932 -0.25043 125 106 105 255 
0.39059 1.51819 -0.04134975 255 255 255 255 
0.1025898 1.50344 -0.35716 255 255 255 255 
0.1070299 1.49407 -0.3597997 255 255 255 255 
0.1212199 1.50017 -0.3492302 255 255 255 255 
0.1310799 1.49058 -0.3395699 255 255 255 255 
0.12606 1.50432 -0.3219599 254 254 254 255 
0.1127 1.50819 -0.2995099 255 255 254 255 
0.09415984 1.52118 -0.2893099 253 253 253 255 
0.11432 1.51378 -0.3100599 251 250 250 255 
0.08433986 1.52589 -0.2537402 253 254 253 255 
0.08415985 1.52648 -0.24764 253 253 253 255 
0.09012985 1.53131 -0.2612599 233 231 231 255 
0.09363008 1.52799 -0.2724398 241 240 239 255 
0.09509993 1.53497 -0.2355999 139 124 124 255 
0.09879994 1.54062 -0.2228101 131 107 106 255 
0.102 1.53836 -0.2260498 135 109 107 255 
0.05230999 1.59234 -0.05739008 106 90 81 255 
0.04817986 1.58741 -0.04235015 109 85 72 255 
-0.2509902 1.917 0.9820401 208 200 191 255 
0.07946992 1.50552 -0.2997698 255 255 255 255 
0.07765007 1.51543 -0.2782201 255 255 255 255 
0.06454992 1.51496 -0.2568101 255 255 255 255 
0.07005 1.52734 -0.2496999 254 255 254 255 
0.06987 1.52721 -0.2533902 254 255 254 255 
0.08038998 1.52071 -0.26413 255 255 254 255 
0.07227993 1.51834 -0.2463401 255 255 254 255 
0.07412004 1.52267 -0.24304 254 254 254 255 
0.04496002 1.57557 -0.04287992 143 118 105 255 
0.05180001 1.5798 -0.03360973 104 78 65 255 
0.3859099 1.49453 0.001879823 242 230 225 255 
-0.24968 1.91256 0.9834 196 183 169 255 
0.05496001 1.51254 -0.23956 255 255 255 255 
0.07757998 1.51123 -0.2238 254 254 254 255 
0.06166005 1.51961 -0.18935 254 254 253 255 
0.05500007 1.55278 -0.03479992 116 85 74 255 
0.04210997 1.50129 -0.1866301 255 255 255 255 
0.05015993 1.53396 -0.04816996 105 78 68 255 
0.05193996 1.54059 -0.03581987 102 72 62 255 
0.05149984 1.54119 -0.03543983 103 74 63 255 
0.04693985 1.49559 -0.1620301 255 255 255 255 
0.06900001 1.49429 -0.1327199 226 223 222 255 
0.04858994 1.52854 -0.03652988 93 66 55 255 
0.04831004 1.52938 -0.03333984 102 75 64 255 
0.2491399 1.47239 -0.02613007 255 255 254 255 
-0.2694201 1.8761 0.9722001 133 119 115 255 
0.04614997 1.48606 -0.1529301 255 255 255 255 
0.05347991 1.48717 -0.1253298 254 255 254 255 
0.03179002 1.48579 -0.1333397 255 255 254 255 
0.03253007 1.48383 -0.1141599 255 255 255 255 
-0.09317994 1.55549 0.0390202 255 255 255 255 
0.03311992 1.5063 -0.01599013 99 76 63 255 
-0.07122993 1.53609 0.01958002 255 255 255 255 
-0.07769012 1.52569 0.02368988 255 255 255 255 
-0.04196 1.48751 -0.02766978 254 255 255 255 
-0.25213 1.80406 0.9435 63 49 49 255 
-0.2462201 1.80382 0.9598901 169 161 160 255 
-0.24177 1.81514 0.98546 255 255 255 255 
-0.2343001 1.81909 0.9911301 255 255 255 255 
-0.04325008 1.47191 -0.03125988 254 254 255 255 
-0.03966999 1.47885 -0.01788985 254 254 253 255 
-0.2509 1.7923 0.9439101 109 94 94 255 
-0.24805 1.79851 0.95315 103 90 88 255 
-0.24772 1.8088 0.97848 253 254 254 255 
1.10709 1.16357 0.01471005 254 255 254 255 
-0.2490699 1.78056 0.9445202 93 79 79 255 
-0.03135014 1.45116 -0.04136979 255 255 254 255 
0.26308 1.41982 0.18288 255 255 255 255 
-0.24652 1.76837 0.9431202 64 51 51 255 
-0.2458401 1.77731 0.9602401 234 232 232 255 
0.2617899 1.40985 0.1682702 255 255 255 255 
-0.2408299 1.75809 0.94951 176 171 171 255 
-0.2397101 1.76398 0.9599702 248 248 248 255 
-0.24366 1.77329 0.9780301 255 255 255 255 
-0.2402802 1.77041 0.97055 255 255 255 255 
0.01633 1.35755 -0.19324 255 255 255 255 
0.18891 1.37646 0.04899991 254 255 254 255 
-0.2398801 1.75264 0.9601201 253 253 253 255 
-0.2423601 1.76051 0.9774501 255 255 255 255 
0.01709986 1.34316 -0.2196201 255 255 255 255 
0.006000042 1.35679 -0.1923198 255 255 255 255 
0.01604986 1.35129 -0.1816 253 253 253 255 
0.01221991 1.34665 -0.1892098 254 254 254 255 
0.01462984 1.35881 -0.16898 254 254 254 255 
0.01864004 1.3651 -0.1597699 254 255 254 255 
0.0285399 1.35465 -0.1588501 254 254 254 255 
0.03471994 1.35975 -0.1417698 254 254 254 255 
0.03339005 1.36694 -0.13245 254 255 255 255 
0.03750992 1.36078 -0.1211399 255 255 255 255 
0.04202986 1.37767 -0.05510986 102 79 74 255 
0.03622985 1.38538 -0.02311981 94 67 57 255 
0.04290986 1.40546 0.01388991 140 109 99 255 
0.01558995 1.33048 -0.2204698 254 254 254 255 
0.01153994 1.33366 -0.1911501 228 225 225 255 
0.007999897 1.34216 -0.19669 252 252 252 255 
0.008549929 1.34201 -0.1976498 254 254 255 255 
0.02042985 1.33527 -0.2066702 254 255 254 255 
0.01101995 1.34127 -0.1755699 209 202 202 255 
0.01501989 1.34572 -0.1695398 229 222 222 255 
0.01646996 1.3519 -0.1589798 244 241 241 255 
0.02859998 1.34203 -0.15668 197 187 186 255 
0.03329992 1.34623 -0.1457499 235 232 232 255 
0.03434992 1.35332 -0.1323899 254 254 253 255 
0.03903008 1.34695 -0.12125 254 254 253 255 
0.04030991 1.36559 -0.05403984 109 87 83 255 
0.0388 1.37212 -0.06450975 177 167 165 255 
0.03697991 1.38269 -0.002419828 152 124 115 255 
0.0341599 1.38125 -0.005539773 141 116 106 255 
0.15239 1.40093 0.1980902 254 254 253 255 
0.006249905 1.32181 -0.2120699 254 255 254 255 
0.00612998 1.32876 -0.1995701 249 249 249 255 
0.0146699 1.33251 -0.1719302 112 89 90 255 
0.01711988 1.33864 -0.1599101 143 122 121 255 
0.01883006 1.33734 -0.1630601 143 121 121 255 
0.01638985 1.3298 -0.15741 108 80 79 255 
0.02948999 1.33444 -0.1456097 161 145 143 255 
0.03961992 1.34142 -0.08581007 254 254 254 255 
0.03609991 1.3473 -0.06406009 200 192 189 255 
0.03727007 1.35982 -0.06408012 191 183 180 255 
0.03781986 1.35431 -0.05229986 107 85 80 255 
0.04114985 1.36126 -0.04308975 76 46 38 255 
0.03500986 1.36087 -0.01920974 103 76 66 255 
0.03609991 1.37012 -0.002240061 138 110 101 255 
0.04313993 1.37734 0.009770037 157 124 115 255 
0.13908 1.35007 0.0540601 254 255 255 255 
0.15095 1.35124 0.05623019 255 255 255 255 
0.1612099 1.35263 0.05644 255 255 254 255 
0.16774 1.35602 0.06060994 255 255 255 255 
0.13539 1.38934 0.1632701 255 255 255 255 
0.14765 1.39006 0.1662899 254 254 254 255 
0.007580042 1.3201 -0.17702 194 186 187 255 
0.01659989 1.32474 -0.1441201 154 126 123 255 
0.03648996 1.33919 -0.07961977 252 253 253 255 
0.03691006 1.34092 -0.05215013 114 94 89 255 
0.04175997 1.34639 -0.04281986 94 61 51 255 
0.03225994 1.35007 -0.01466978 135 106 97 255 
0.03356004 1.35634 -0.02657974 123 90 80 255 
0.03521991 1.35767 -0.001590133 153 123 114 255 
0.04326987 1.3621 0.004890084 147 116 107 255 
0.1147699 1.3655 0.1144201 254 255 255 255 
0.1164899 1.37089 0.1342002 254 255 254 255 
0.1271799 1.37385 0.1501099 254 254 254 255 
0.14923 1.37922 0.2009403 198 166 158 255 
0.01192999 1.30527 -0.15637 134 121 118 255 
0.01041007 1.30864 -0.1628798 180 171 170 255 
0.01465988 1.31629 -0.1428598 104 78 73 255 
0.01267004 1.31145 -0.12617 169 138 128 255 
0.01820993 1.30995 -0.1251901 184 155 144 255 
0.02429986 1.31215 -0.11241 185 157 146 255 
0.03366995 1.32235 -0.08802974 209 201 198 255 
0.03106999 1.32713 -0.07806003 208 201 198 255 
0.03863001 1.3259 -0.05497015 125 99 93 255 
0.03698993 1.33536 -0.03833998 119 90 82 255 
0.03238988 1.33719 -0.0146898 144 116 107 255 
0.03607988 1.34417 -0.002580048 143 114 106 255 
0.0395999 1.35136 0.008919834 145 114 105 255 
0.14011 1.33092 0.03560984 254 255 254 255 
0.09704995 1.35925 0.1332999 254 254 254 255 
0.09016991 1.36497 0.13967 254 254 254 255 
0.09834003 1.366 0.1191598 254 255 254 255 
0.1045001 1.36428 0.1422902 254 254 253 255 
0.1471 1.36699 0.2008101 185 136 122 255 
-0.10604 1.31671 -0.1929001 255 255 255 255 
0.01030993 1.29168 -0.1539801 106 88 86 255 
0.01512003 1.2966 -0.1448501 86 60 54 255 
0.008100033 1.30029 -0.1175999 119 83 72 255 
0.01106 1.29741 -0.13423 100 69 61 255 
0.01379991 1.30367 -0.1110901 177 141 129 255 
0.01996994 1.30592 -0.1100601 189 155 143 255 
0.01195002 1.30329 -0.1157502 157 122 111 255 
0.02066994 1.30539 -0.09923018 184 149 136 255 
0.02937984 1.32465 -0.01516998 131 103 95 255 
0.03399992 1.33206 -0.002069834 140 111 103 255 
0.04123998 1.33687 0.006089804 161 131 122 255 
0.11164 1.31407 0.03204023 253 253 252 255 
0.1252999 1.31719 0.0354501 254 255 254 255 
0.09097004 1.34302 0.10526 254 255 254 255 
0.08748984 1.3474 0.1087099 254 255 254 255 
0.09229994 1.35121 0.1194102 254 254 254 255 
0.09463 1.34862 0.13299 253 254 253 255 
0.0950799 1.35285 0.1415201 253 253 252 255 
-0.1054599 1.30533 -0.20898 255 255 255 255 
-0.07902002 1.29292 -0.2127999 254 255 254 255 
0.01220989 1.28479 -0.1441001 115 83 77 255 
0.02981997 1.30428 -0.0468601 129 96 86 255 
0.03305006 1.30953 -0.05849016 124 95 85 255 
0.03241992 1.31006 -0.03568018 126 95 86 255 
0.02813005 1.31255 -0.0136298 145 116 107 255 
0.02806997 1.31231 -0.01386011 145 116 107 255 
0.03208995 1.31752 -0.02273977 135 106 97 255 
0.03251004 1.31962 -0.001839999 163 134 125 255 
0.03976989 1.32463 0.006350156 158 127 118 255 
0.1014299 1.30644 0.04452002 254 255 254 255 
0.08856988 1.33362 0.08932984 255 255 254 255 
0.09926987 1.32071 0.0672599 255 255 254 255 
0.09909987 1.31971 0.06836998 254 255 254 255 
0.09517002 1.32321 0.07165015 255 255 254 255 
0.07753992 1.33437 0.1128002 254 254 254 255 
0.07984996 1.33644 0.1141001 254 254 254 255 
0.08591986 1.34179 0.1246902 253 254 253 255 
0.0847199 1.34721 0.1289603 254 254 254 255 
0.08657002 1.34385 0.1240102 254 254 254 255 
0.09133005 1.33448 0.1310898 229 219 216 255 
0.09563994 1.33454 0.12949 235 227 224 255 
0.006459951 1.28629 -0.1213301 147 106 96 255 
0.01956987 1.2895 -0.05595005 140 107 97 255 
0.02325988 1.29451 -0.04538 145 112 101 255 
0.02319002 1.29429 -0.04539002 145 112 102 255 
0.02722001 1.29891 -0.03592003 116 85 75 255 
0.02928996 1.30406 -0.0259899 128 99 90 255 
0.02729988 1.29912 -0.03592003 117 85 75 255 
0.02707005 1.29988 -0.01293982 153 122 113 255 
0.02556992 1.30072 -0.01121986 154 123 114 255 
0.02596998 1.30031 -0.01241005 152 121 112 255 
0.02922988 1.30496 -0.02501 129 100 91 255 
0.03122997 1.30686 -0.00195015 161 130 120 255 
0.03856993 1.31209 0.006539936 174 142 133 255 
0.07096004 1.32122 0.08951008 254 254 254 255 
0.07174993 1.33033 0.1054403 254 254 253 255 
0.07333994 1.32207 0.1146399 239 234 231 255 
0.07450986 1.32445 0.1162802 242 238 236 255 
0.08220005 1.32991 0.1250902 242 235 233 255 
0.08383989 1.33188 0.1255699 246 241 240 255 
0.08064985 1.32798 0.1237599 239 230 228 255 
0.08587003 1.33671 0.1382099 220 204 200 255 
0.1378999 1.32971 0.1879898 247 247 245 255 
0.14135 1.33644 0.1949602 232 226 223 255 
0.01502991 1.283 -0.07673014 109 75 64 255 
0.01803994 1.27799 -0.05860985 124 94 87 255 
0.02513003 1.29282 -0.02566994 120 88 78 255 
0.02571988 1.2934 -0.02516974 124 92 82 255 
0.02561998 1.29339 -0.02449978 126 95 85 255 
0.02208996 1.28847 -0.03372992 89 57 47 255 
0.02234006 1.28751 -0.03567017 98 66 57 255 
0.02192998 1.28874 -0.03397978 91 58 48 255 
0.02614999 1.28671 -0.0139798 164 132 123 255 
0.02322006 1.28912 -0.01004017 166 134 125 255 
0.02541995 1.28697 -0.01556004 165 133 124 255 
0.02413988 1.28815 -0.01210011 166 134 125 255 
0.02982998 1.29444 -0.001280195 163 132 122 255 
0.03666997 1.3 0.007410163 165 132 122 255 
0.07033992 1.31515 0.1016999 252 251 250 255 
0.0666399 1.30737 0.1046001 222 210 205 255 
0.07246995 1.30932 0.114 205 172 164 255 
0.07961988 1.31491 0.1233302 199 157 149 255 
0.08081985 1.31695 0.1245099 199 160 152 255 
0.08764005 1.32039 0.1317002 192 146 138 255 
0.08657002 1.30966 0.1302801 175 126 116 255 
0.1266499 1.31796 0.1884199 255 255 254 255 
-0.10234 1.50402 0.5867101 254 254 254 255 
-0.21316 1.27216 -0.2748598 255 255 255 255 
-0.2019501 1.27273 -0.2759699 255 255 255 255 
0.02029991 1.27516 -0.03690995 151 118 111 255 
0.02041006 1.26358 -0.04711998 87 58 52 255 
0.02199006 1.28108 -0.02366007 128 95 86 255 
0.02171993 1.28165 -0.02512015 121 87 79 255 
0.02104998 1.27439 -0.03575981 149 116 108 255 
0.02243996 1.28072 -0.0268401 118 85 76 255 
0.02498984 1.27402 -0.01352013 161 126 118 255 
0.02445984 1.27478 -0.01317013 161 126 118 255 
0.02875996 1.28177 -0.001459963 159 126 116 255 
0.03406 1.28792 0.008770102 171 138 127 255 
0.05829 1.30492 0.09740984 250 246 243 255 
0.06351995 1.29506 0.1041299 205 165 156 255 
0.07026005 1.2968 0.1142899 185 132 120 255 
0.07761002 1.30227 0.1234099 183 129 119 255 
-0.11923 1.51156 0.6476701 255 255 254 255 
-0.21771 1.25375 -0.3015798 255 255 255 255 
-0.20452 1.25519 -0.3031 255 255 255 255 
0.02241993 1.26722 -0.02580012 125 89 82 255 
0.02171993 1.26784 -0.02767981 130 95 87 255 
0.02898002 1.25626 -0.04485978 89 56 48 255 
0.02200985 1.26207 -0.01227988 141 104 96 255 
0.02024007 1.26421 -0.0100602 147 110 103 255 
0.02237988 1.26265 -0.01233996 143 106 98 255 
0.02076006 1.26283 -0.01423014 131 93 85 255 
0.02712989 1.26928 -0.001180061 159 123 114 255 
0.03302002 1.27526 0.008750074 171 137 127 255 
0.04085994 1.26857 0.01600992 170 136 125 255 
0.06717992 1.26474 0.02038013 137 95 82 255 
0.08274007 1.27437 0.05738985 235 228 227 255 
0.06879997 1.2862 0.11123 162 116 107 255 
0.06519985 1.2803 0.10071 152 103 93 255 
0.07222986 1.29024 0.1191899 145 100 91 255 
0.08132005 1.28687 0.13548 233 230 228 255 
0.08114004 1.29606 0.17057 254 254 254 255 
-0.17502 1.50198 0.56239 254 254 254 255 
-0.1600401 1.49498 0.5714501 195 189 186 255 
-0.15679 1.49804 0.5783101 109 95 87 255 
-0.1194901 1.49919 0.64753 252 253 252 255 
-0.20349 1.56966 0.7645901 254 254 254 255 
-0.2346301 1.24179 -0.3134898 255 255 255 255 
-0.23318 1.25225 -0.2993997 255 255 255 255 
-0.0748601 1.24164 -0.1744999 254 254 254 255 
-0.04781008 1.24688 -0.1206201 254 255 255 255 
0.02805996 1.23703 -0.0489601 91 67 62 255 
0.02065992 1.25595 -0.02289999 88 51 43 255 
0.01989007 1.25707 -0.02194012 88 51 44 255 
0.02234006 1.2488 -0.01316012 127 87 78 255 
0.02147007 1.25026 -0.01136006 133 94 85 255 
0.02171993 1.25005 -0.01389016 118 80 71 255 
0.03217006 1.26186 0.007599941 170 135 125 255 
0.04447007 1.26074 0.03338014 169 134 121 255 
0.05457997 1.25745 0.02213012 171 134 121 255 
0.05544996 1.26215 0.04128992 148 106 94 255 
0.05960989 1.27588 0.09168016 184 128 116 255 
0.06977987 1.27495 0.11477 148 129 124 255 
0.06910992 1.27383 0.1140901 149 130 125 255 
0.07542992 1.27563 0.1344 254 254 254 255 
0.07617998 1.28252 0.1229101 174 156 153 255 
0.07657003 1.28243 0.12424 183 169 166 255 
0.07434988 1.28378 0.1482998 254 254 254 255 
0.0754199 1.28979 0.1588198 254 254 254 255 
-0.2038 1.48642 0.5566801 254 254 254 255 
-0.17081 1.48934 0.5662102 254 254 254 255 
-0.1617701 1.48711 0.5751101 238 237 236 255 
-0.14696 1.48546 0.57787 104 91 88 255 
-0.1387901 1.48567 0.58683 103 86 81 255 
-0.3526001 1.69498 1.08128 122 109 106 255 
-0.2357399 1.21203 -0.3573598 255 255 255 255 
-0.07962012 1.21905 -0.17527 255 255 255 255 
-0.05411005 1.22298 -0.1555599 255 255 255 255 
-0.04332995 1.25514 -0.04829014 255 255 254 255 
0.02799988 1.23206 -0.02406014 99 62 50 255 
0.03132987 1.24819 0.005590071 160 124 113 255 
0.03620005 1.24724 0.02651989 172 140 126 255 
0.03900003 1.24815 0.02932989 170 138 125 255 
0.03027987 1.26083 0.06147014 176 139 128 255 
0.03903008 1.25275 0.04392015 172 136 124 255 
0.03723001 1.2539 0.04589998 172 136 125 255 
0.03723001 1.2539 0.04589998 172 136 125 255 
0.04595995 1.25808 0.05923998 177 132 119 255 
0.0564599 1.25956 0.09549009 132 90 79 255 
0.06343007 1.26708 0.10454 127 96 89 255 
0.06804991 1.27291 0.1245199 241 239 238 255 
0.07122993 1.26093 0.1141201 247 245 243 255 
0.06622005 1.2587 0.1175901 253 253 252 255 
0.06777 1.26559 0.1306702 254 254 254 255 
0.06626987 1.2747 0.1493002 254 254 254 255 
0.07028985 1.28796 0.1788799 254 254 254 255 
0.02101994 1.31116 0.23829 254 254 254 255 
-0.06081009 1.39736 0.4292501 254 255 254 255 
-0.1505401 1.46716 0.5702699 253 254 253 255 
-0.1147301 1.47315 0.63455 202 170 158 255 
-0.1194801 1.48628 0.6622699 192 158 147 255 
-0.13041 1.49062 0.68742 158 114 102 255 
-0.16398 1.53723 0.7745601 164 122 112 255 
0.02784991 1.21583 -0.04156007 111 84 78 255 
0.03048992 1.22133 -0.02437009 100 58 46 255 
0.02298999 1.23613 0.02586995 178 143 132 255 
0.02380991 1.24992 0.04862987 183 148 136 255 
0.01917005 1.24626 0.04297983 197 159 148 255 
0.01452994 1.24869 0.06717979 205 167 155 255 
0.01269984 1.25475 0.07343017 205 168 158 255 
0.01850986 1.25444 0.08441984 209 161 150 255 
0.02193999 1.25519 0.08479988 220 174 163 255 
0.03469992 1.25489 0.08695995 206 156 143 255 
0.05448008 1.24689 0.09582006 189 151 143 255 
0.0625999 1.25277 0.1060401 207 196 193 255 
0.06117988 1.25564 0.1330601 254 254 253 255 
0.06483006 1.2456 0.1156698 244 239 237 255 
0.07050991 1.25022 0.1250201 254 254 253 255 
0.06552005 1.2602 0.1422802 254 254 254 255 
0.02070999 1.28815 0.1878 253 254 253 255 
0.003619909 1.29982 0.2289702 254 253 252 255 
0.008719921 1.2957 0.22291 245 241 239 255 
0.01890993 1.29661 0.20673 254 254 254 255 
-0.00112009 1.3098 0.2461902 252 248 247 255 
0.01588988 1.30711 0.22779 254 254 254 255 
-0.02121997 1.33072 0.27905 253 249 247 255 
-0.01750016 1.3271 0.29557 251 244 241 255 
-0.01708007 1.33319 0.3063601 253 248 247 255 
-0.05053997 1.3731 0.3874501 254 254 254 255 
-0.11902 1.44601 0.5819601 161 132 124 255 
-0.11834 1.4537 0.59487 106 79 68 255 
-0.1187701 1.45863 0.61383 106 73 59 255 
-0.11006 1.46213 0.6222399 192 152 140 255 
-0.1079199 1.45697 0.6212901 164 124 112 255 
-0.1201 1.47416 0.6624001 160 108 97 255 
-0.12533 1.48192 0.67197 150 101 90 255 
-0.132 1.49888 0.71759 130 89 76 255 
-0.23772 1.18275 -0.3720502 255 255 255 255 
0.01636004 1.22098 -1.992042e-05 125 86 74 255 
0.01735997 1.2137 -0.01048983 111 70 59 255 
0.02490997 1.20702 -0.02280988 107 67 57 255 
0.01915002 1.22722 0.0106002 151 113 103 255 
0.01927996 1.22435 0.02488004 150 116 105 255 
0.01951003 1.2235 0.02044021 141 107 95 255 
0.01472998 1.2413 0.05381023 176 136 123 255 
0.00503993 1.24658 0.08113014 197 156 143 255 
0.02268004 1.2451 0.09292995 202 154 141 255 
-0.00225997 1.28032 0.1960899 231 197 188 255 
0.002660036 1.29092 0.2114302 233 224 221 255 
-0.01279998 1.30395 0.2455202 230 218 215 255 
-0.005280018 1.29059 0.2311403 199 167 159 255 
-0.02310014 1.32417 0.2904302 249 239 235 255 
-0.02066994 1.31718 0.2785102 243 235 232 255 
-0.01961994 1.31477 0.29451 216 184 175 255 
-0.02037001 1.32171 0.30629 226 203 196 255 
-0.03499007 1.3526 0.4067501 196 153 138 255 
-0.03356004 1.35948 0.4187599 208 171 161 255 
-0.1047101 1.43998 0.5937999 72 41 30 255 
-0.1106601 1.44612 0.61544 99 67 58 255 
-0.1045799 1.44785 0.6467401 93 66 60 255 
-0.24368 1.17296 -0.3702001 255 255 255 255 
-0.14309 1.18036 -0.24584 255 255 255 255 
-0.13692 1.18455 -0.2434701 255 255 255 255 
-0.1363301 1.18454 -0.2440699 255 255 255 255 
0.01318002 1.21577 0.01042997 133 99 91 255 
0.009399891 1.21565 0.03096019 135 103 94 255 
0.01538992 1.22213 0.05329 163 125 112 255 
0.0129199 1.22832 0.05032026 166 128 114 255 
-0.01466012 1.28117 0.2296602 183 114 100 255 
-0.01167011 1.28981 0.2417198 198 143 131 255 
-0.008370161 1.28513 0.2401601 205 141 128 255 
-0.01615 1.29916 0.2577001 215 172 163 255 
-0.02111006 1.30362 0.2802602 193 140 128 255 
-0.02379012 1.31021 0.30659 171 114 100 255 
-0.02294016 1.32695 0.36456 177 128 112 255 
-0.02330995 1.33996 0.3916801 197 142 124 255 
-0.02612996 1.33466 0.3815199 199 145 128 255 
-0.03146005 1.35181 0.43288 180 120 103 255 
-0.06160998 1.37596 0.4945301 123 78 67 255 
-0.10115 1.42593 0.59418 83 59 53 255 
-0.10274 1.43369 0.6081702 90 68 63 255 
-0.09869003 1.43808 0.6369699 121 103 99 255 
-0.15768 1.49282 0.7575501 246 245 243 255 
-0.1307001 1.47882 0.72763 188 179 175 255 
-0.1672101 1.50624 0.7812899 233 229 227 255 
-0.17466 1.51045 0.79066 239 236 234 255 
-0.1749501 1.52028 0.8170201 98 74 66 255 
-0.25123 1.1629 -0.36631 255 255 255 255 
-0.24458 1.16717 -0.3588599 254 254 254 255 
-0.2409601 1.17284 -0.3450598 248 247 248 255 
-0.001909971 1.22234 0.08534013 92 56 46 255 
-0.01676011 1.2791 0.2424899 148 81 68 255 
-0.02059007 1.28169 0.26673 106 53 42 255 
-0.02660012 1.29501 0.2701899 173 109 96 255 
-0.01496005 1.28791 0.28014 120 61 49 255 
-0.02170014 1.31212 0.3720301 119 89 82 255 
-0.02705002 1.32362 0.3969301 120 82 72 255 
-0.04398012 1.35175 0.47484 92 63 54 255 
-0.05905008 1.37014 0.5051399 87 58 50 255 
-0.1143601 1.43113 0.63685 229 226 226 255 
-0.15117 1.46601 0.7355601 255 255 255 255 
-0.16868 1.47797 0.7573999 255 255 255 255 
-0.1709301 1.49396 0.77591 254 254 254 255 
-0.1783001 1.49175 0.78643 255 255 255 255 
-0.1742401 1.50354 0.80154 249 248 248 255 
-0.1752 1.50826 0.8158699 216 211 209 255 
0.02169991 1.15849 -0.04585018 162 152 150 255 
0.02884984 1.16548 -0.03492012 72 45 40 255 
0.01336002 1.20363 0.06775008 82 52 44 255 
0.002330065 1.25206 0.20919 124 74 66 255 
-0.01040006 1.25979 0.2375599 115 82 76 255 
-0.01029015 1.25926 0.2347599 116 82 76 255 
-0.009269953 1.27214 0.2587301 87 39 30 255 
-0.009940147 1.26589 0.2480002 102 60 53 255 
-0.009109974 1.27226 0.28012 117 88 83 255 
-0.02023005 1.28557 0.2964901 93 52 43 255 
-0.02733994 1.30935 0.3913699 179 168 165 255 
-0.02797008 1.31745 0.38706 116 87 79 255 
-0.02968001 1.32534 0.4104201 126 95 86 255 
-0.04368997 1.33727 0.4448501 138 118 111 255 
-0.03628016 1.32488 0.4332801 185 175 172 255 
-0.04277015 1.33038 0.43422 139 122 117 255 
-0.03305006 1.32037 0.42214 191 182 179 255 
-0.04655004 1.33515 0.4557 176 165 162 255 
-0.1162701 1.41733 0.63719 254 255 254 255 
-0.10268 1.41247 0.6190401 254 254 254 255 
-0.1468201 1.44791 0.7122 255 255 255 255 
-0.1231201 1.43347 0.68844 255 255 254 255 
-0.1322901 1.44841 0.70985 255 255 255 255 
-0.1564 1.45619 0.7359999 255 255 255 255 
-0.18402 1.49035 0.7852701 255 255 255 255 
-0.18522 1.49122 0.8047601 254 255 255 255 
-0.2551901 1.14827 -0.3584398 255 255 255 255 
-0.2660902 1.14899 -0.3555202 255 255 255 255 
-0.2460802 1.15379 -0.3184299 255 255 255 255 
0.01257992 1.16928 0.00348006 94 69 60 255 
0.03087997 1.17776 0.05024014 36 16 11 255 
0.004199982 1.22962 0.1982699 209 203 201 255 
-0.007420063 1.25037 0.2408401 205 196 192 255 
-0.02812004 1.27287 0.3029 218 214 211 255 
-0.009530067 1.26333 0.28785 228 224 221 255 
-0.02689004 1.27878 0.3077999 178 167 164 255 
-0.02564001 1.27998 0.3142701 168 157 153 255 
-0.03218007 1.29806 0.3668901 163 154 152 255 
-0.02362013 1.30009 0.3757001 183 174 172 255 
-0.02684999 1.30223 0.3780299 167 157 154 255 
-0.02386999 1.2997 0.39334 243 241 240 255 
-0.02505994 1.29385 0.3834301 249 249 249 255 
-0.03228998 1.31372 0.41089 210 205 203 255 
-0.02152014 1.30389 0.4004201 235 233 232 255 
-0.04005003 1.31446 0.44002 253 253 253 255 
-0.03416014 1.3113 0.4330601 252 252 252 255 
-0.04003 1.31445 0.4399899 253 253 253 255 
-0.04348993 1.32356 0.45657 253 253 252 255 
-0.04490995 1.32646 0.4692801 252 252 252 255 
-0.1077101 1.39406 0.6100301 254 255 254 255 
-0.09695005 1.39658 0.61945 254 255 255 255 
-0.09639001 1.40267 0.63003 254 255 255 255 
-0.08791995 1.39074 0.63002 255 255 255 255 
-0.2641501 1.14043 -0.34803 255 255 255 255 
-0.2727699 1.14026 -0.3467998 255 255 255 255 
-0.26368 1.13992 -0.3236002 255 255 255 255 
-0.2348402 1.1496 -0.2860102 255 255 255 255 
-0.01469016 1.23188 0.2308799 254 254 254 255 
-0.00593996 1.22874 0.2078401 251 251 250 255 
-0.01082015 1.23761 0.2415801 254 254 254 255 
-0.01371002 1.24609 0.252 253 253 253 255 
-0.01955009 1.24252 0.2627102 254 254 254 255 
-0.01928997 1.25449 0.29184 254 254 254 255 
-0.0325501 1.27142 0.32186 240 239 238 255 
-0.03716993 1.27414 0.3246101 254 254 253 255 
-0.03803015 1.27479 0.34964 254 254 254 255 
-0.02056003 1.26012 0.3256701 254 255 255 255 
-0.03592014 1.2861 0.36366 251 251 250 255 
-0.0322001 1.28406 0.3848799 254 255 255 255 
-0.02925014 1.28929 0.3735801 252 251 251 255 
-0.03050995 1.29012 0.3964599 254 254 254 255 
-0.02414012 1.29316 0.4051901 254 254 254 255 
-0.02294016 1.28661 0.39372 254 254 254 255 
-0.04667997 1.30413 0.4399701 255 255 255 255 
-0.02595997 1.30244 0.4273301 254 254 254 255 
0.01721001 1.14943 0.01428996 104 76 66 255 
0.04364991 1.13986 0.03824006 81 50 42 255 
-0.01638007 1.23385 0.2522002 255 255 254 255 
-0.02729011 1.23238 0.26217 255 255 255 255 
-0.02099013 1.23564 0.2802302 255 255 255 255 
-0.01802015 1.24122 0.29137 255 255 255 255 
-0.02206993 1.24412 0.2991802 255 255 255 255 
-0.03291011 1.26104 0.32964 255 255 255 255 
-0.03270006 1.25883 0.3232101 255 255 255 255 
-0.03076005 1.26494 0.3527001 255 255 255 255 
-0.02294016 1.26766 0.36542 255 255 255 255 
-0.04070997 1.28952 0.4143201 254 255 254 255 
-0.04056001 1.28941 0.4141201 255 255 254 255 
-0.2093201 1.49415 0.8846 253 253 253 255 
-0.2021701 1.48471 0.8921 254 254 254 255 
-0.03118014 1.13782 -0.02691021 255 255 255 255 
0.01816988 1.121 0.006070235 98 60 49 255 
0.04193997 1.1216 0.0328599 119 86 76 255 
-0.01604009 1.23608 0.3105999 255 255 255 255 
-0.02302003 1.2697 0.42614 255 255 255 255 
-0.20663 1.47922 0.87791 255 255 255 255 
-0.2020001 1.48275 0.8939999 254 254 254 255 
-0.20081 1.47798 0.88471 254 255 255 255 
0.02414989 1.10717 -0.0245799 96 68 62 255 
0.02017999 1.11395 0.01917992 115 81 70 255 
0.04199004 1.12053 0.03296003 121 89 78 255 
0.03788996 1.11388 0.03452978 110 78 67 255 
-0.2021101 1.47151 0.8891901 254 255 255 255 
-0.2035301 1.47065 0.9099101 255 255 255 255 
0.01891994 1.10617 0.005980112 98 62 51 255 
0.01594996 1.09356 0.001309967 122 86 75 255 
0.02250004 1.08019 -0.003310109 119 86 74 255 
-0.25507 1.48431 0.9638201 254 254 254 255 
-0.2256401 1.47664 0.9504 253 254 253 255 
0.02880001 1.05691 -0.01601019 103 64 54 255 
0.004509926 0.9663501 -0.04275981 235 235 234 255 
0.01480007 0.9696701 -0.03253022 153 140 137 255 
0.00778985 0.9576001 -0.03445999 205 200 198 255 
0.02567005 0.9668801 0.02793988 150 108 95 255 
-0.09885001 0.91137 -0.01991979 176 168 166 255 
-0.01352 0.8786001 0.007639962 119 88 80 255 
-0.00364995 0.8608902 0.01011999 96 64 54 255 
0.01339984 0.83023 0.01562984 117 72 60 255 
0.00383997 0.8195901 0.01309021 112 73 61 255 
0.01348996 0.78369 -0.01095002 114 82 73 255 
-0.002579927 0.8062401 0.02862985 157 117 106 255 
0.002660036 0.77723 0.01259 120 82 73 255 
-0.0004200935 0.7895801 0.02244003 131 92 82 255 
-0.003279924 0.7662501 0.01336009 123 80 70 255 
-0.002120018 0.773 0.02481992 141 102 92 255 
-0.005980015 0.7599201 0.02454001 164 124 114 255 
-0.006139994 0.7458501 0.02412993 162 126 116 255 
-0.005520105 0.7387102 0.01184994 111 76 66 255 
-0.003279924 0.75334 0.03535993 163 119 107 255 
0.01689005 0.74827 0.06248004 171 133 122 255 
-0.007529974 0.7322202 0.02439982 141 105 97 255 
0.003999949 0.73418 0.05087001 140 96 84 255 
0.003319979 0.74245 0.04366976 133 86 73 255 
0.01891994 0.73823 0.06566007 149 113 103 255 
0.07336998 0.7297101 0.08645017 108 85 79 255 
-0.007560015 0.7182 0.02461011 156 127 120 255 
-0.00537014 0.73125 0.04170996 148 107 97 255 
-0.001840115 0.7225602 0.05103976 131 88 78 255 
0.005739927 0.7264302 0.06066996 168 128 120 255 
-0.007539988 0.7029102 0.04040009 142 110 101 255 
-0.01252007 0.6835001 0.02921015 152 117 107 255 
-0.02007008 0.67255 0.01965004 130 102 93 255 
-0.01226997 0.6317902 0.02536016 136 98 90 255 
-0.01524997 0.6185601 0.02625995 127 87 78 255 
-0.01230001 0.62623 0.04084974 147 105 93 255 
0.01290989 0.5407801 -0.1090502 156 151 152 255 
0.02056003 0.5459101 -0.09803005 161 153 153 255 
0.02187991 0.5527601 -0.08932014 123 106 104 255 
-0.01363993 0.6036301 0.02343994 116 76 66 255 
0.01846004 0.5376201 -0.1061101 174 169 170 255 
-0.01643014 0.5906901 0.02554994 118 82 72 255 
0.01620984 0.5279601 -0.08404012 154 146 145 255 
0.01100993 0.5043402 -0.09916015 164 158 159 255 
0.01172996 0.5051601 -0.0981402 185 181 182 255 
0.005179882 0.5142801 -0.07716985 168 163 164 255 
-0.01872015 0.5625801 -0.0002397999 118 80 69 255 
-0.0202601 0.57056 0.01150995 143 106 97 255 
0.009299994 0.4946702 -0.08088012 167 163 163 255 
0.009459972 0.4951601 -0.08046003 167 163 163 255 
0.01259995 0.49898 -0.08809991 175 172 173 255 
0.00955987 0.4997802 -0.09021993 173 168 170 255 
-0.01638007 0.55462 0.03595977 137 103 95 255 
0.009209871 0.4907901 -0.07247014 169 164 165 255 
0.009739876 0.49087 -0.07219024 169 164 165 255 
0.00109005 0.49649 -0.06209989 149 144 145 255 
0.01493001 0.48329 -0.0608501 166 159 157 255 
-0.02347994 0.5180001 0.03082995 153 119 111 255 
-0.02565002 0.50337 0.02900986 171 143 135 255 
-0.02097011 0.4965401 0.04064994 138 101 91 255 
0.0004298687 0.4350002 -0.03284021 140 129 127 255 
-0.02316999 0.4808202 0.0388699 138 103 93 255 
-0.01759005 0.47334 0.04825978 153 116 107 255 
-0.007009983 0.4300702 -0.04293009 145 141 141 255 
-0.01416993 0.3959701 0.07106975 159 121 105 255 
-0.08046007 0.4159901 0.08020977 149 126 116 255 
0.08662987 0.34215 0.05322984 194 159 133 255 
-0.05841994 0.33025 0.06390002 88 75 64 255 
0.0982399 0.31616 0.1693797 211 171 143 255 
-0.04807997 0.32163 0.07477 102 86 73 255 
0.0661099 0.2829401 0.1166997 194 189 190 255 
0.07960987 0.2812901 0.1192699 164 159 158 255 
0.05888987 0.2611301 0.08034994 77 75 61 255 
0.06025004 0.27526 0.1039801 159 157 154 255 
0.03516984 0.29654 0.1515498 164 159 151 255 
-0.03355002 0.2752202 0.03995993 104 88 74 255 
0.03875995 0.2742 0.1198898 87 98 80 255 
0.04061985 0.2820001 0.1318097 134 134 122 255 
0.03845 0.2737401 0.13833 113 121 104 255 
0.0388 0.2732701 0.1356302 98 110 91 255 
0.03688002 0.28456 0.15274 146 142 128 255 
0.03708005 0.2843602 0.1524902 146 142 128 255 
0.03708005 0.2843602 0.1524902 146 142 128 255 
0.03176999 0.2704 0.1315799 65 88 61 255 
0.07949996 0.20855 0.06885006 40 61 31 255 
0.02395988 0.2803101 0.1897998 147 146 136 255 
-0.03979015 0.2277601 0.02776005 96 87 72 255 
0.07545996 0.1786201 0.08596994 107 81 72 255 
0.06192994 0.18243 0.09509994 122 95 86 255 
0.06529999 0.16749 0.08948995 106 81 70 255 
0.05257988 0.16577 0.09128 124 98 84 255 
-0.00928998 0.13765 -0.009230125 116 113 94 255 
0.04339004 0.14871 0.09208013 122 97 82 255 
0.06784987 0.13889 0.08396007 92 75 62 255 
0.08764005 0.2239 0.2967499 219 185 158 255 
-0.01979995 0.1382902 0.01782991 113 104 90 255 
-0.02858996 0.1624901 0.05780984 146 123 106 255 
0.04008985 0.12939 0.09244014 90 58 42 255 
0.0390799 0.12937 0.09377004 89 59 44 255 
0.05926991 0.1249301 0.09481002 80 72 58 255 
0.02667999 0.1165202 0.0942998 120 86 69 255 
0.05912995 0.1031301 0.08289004 88 68 48 255 
-0.02073002 0.08214998 0.03487016 133 117 101 255 
0.01786995 0.09308004 0.09782983 131 100 82 255 
-0.02398014 0.05669999 -0.002940173 137 142 129 255 
-0.01857996 0.06772017 0.03079987 139 122 105 255 
-0.01730013 0.03731012 0.01325989 135 120 99 255 
-0.02382016 0.06726002 0.06009007 153 130 111 255 
0.0003499985 0.08636998 0.1057501 114 79 60 255 
-0.008710146 0.02178001 0.008039953 141 124 104 255 
-0.02191997 0.05448007 0.04660988 141 118 99 255 
-0.008430004 0.06022 0.09547997 169 140 123 255 
-0.02251005 0.01804995 0.01300001 126 107 90 255 
-0.02856016 0.03644013 0.04354 163 138 119 255 
-0.01897001 0.03781008 0.05305004 158 134 116 255 
-0.03084016 0.02833008 0.05559969 170 146 127 255 
-0.0232501 0.03173994 0.06735992 171 148 130 255 
-0.0002200603 3.741754 0.09964022 255 255 255 255 
-8.010864e-05 3.74193 0.09951004 255 255 255 255 
0.0008499622 3.730122 0.0985001 255 255 255 255 
0.0009799004 3.730235 0.09838042 255 255 255 255 
0.02016997 3.703168 0.08244022 255 255 255 255 
0.003200054 3.694606 0.09480032 255 255 255 255 
0.01262999 3.62992 0.08190044 255 254 254 255 
0.01243997 3.629945 0.08245023 255 254 254 255 
-0.02498007 3.271619 0.01973038 255 255 254 255 
-0.008160114 3.180794 0.05087022 250 249 248 255 
0.04589987 3.072043 -0.04915974 246 245 242 255 
0.04493999 3.063734 -0.02825996 252 252 252 255 
0.06327987 3.033253 -0.03451988 94 63 50 255 
0.05575991 3.041125 -0.008359644 134 98 86 255 
0.05919003 3.040269 -0.01180002 143 108 96 255 
0.09679008 2.985912 0.05924013 255 255 255 255 
0.10023 2.97922 0.06341007 255 255 255 255 
0.07574987 2.92718 -0.04683993 254 255 254 255 
0.05431986 2.879415 -0.07158969 255 255 255 255 
0.05243993 2.866349 -0.06946968 255 255 254 255 
0.09318995 2.87091 -0.05534004 254 254 254 255 
0.1026299 2.847541 -0.0533297 178 158 151 255 
0.1075299 2.82547 -0.09931969 254 254 253 255 
0.03236985 2.720781 -0.05940986 255 255 255 255 
0.08922005 2.535376 -0.1206501 255 255 255 255 
0.08512998 2.518752 -0.1230199 255 255 255 255 
0.09875989 2.504264 -0.1413701 255 255 255 255 
0.08379984 2.49504 -0.1487301 255 255 255 255 
0.08997989 2.476163 -0.15186 254 255 254 255 
0.5828099 2.272634 -1.13049 255 255 255 255 
0.5948299 2.28477 -1.1241 254 255 255 255 
0.60709 2.276191 -1.10756 233 231 231 255 
0.6050899 2.284125 -1.11798 251 250 250 255 
0.09814 2.4633 -0.08143976 158 106 93 255 
0.6138999 2.271361 -1.08508 138 122 126 255 
0.09844995 2.443563 -0.08497979 122 87 78 255 
0.09988999 2.443177 -0.08691003 115 79 69 255 
0.09458995 2.444598 -0.0797899 128 91 82 255 
0.10585 2.427974 -0.09023979 81 49 39 255 
0.09258986 2.434576 -0.0680001 105 69 59 255 
0.5449699 2.21392 -1.07077 255 255 255 255 
-1.07034 2.507087 -0.5161898 255 255 255 255 
0.08003998 2.392398 -0.1422799 255 255 255 255 
0.5844699 2.18217 -0.9486001 255 255 255 255 
0.5696 2.15822 -0.9497097 253 252 253 255 
0.5665599 2.1517 -0.9381498 254 254 253 255 
0.56381 2.14506 -0.9261001 254 254 255 255 
0.5514699 2.15547 -0.8977297 255 255 255 255 
0.4162999 2.30222 0.12942 255 255 255 255 
0.54046 2.12777 -0.8999098 254 254 253 255 
-1.08462 2.437578 -0.4677599 255 255 255 255 
-1.07217 2.437282 -0.4656098 255 255 255 255 
0.5443599 2.11109 -0.9435499 167 156 156 255 
-0.9233999 2.392421 -0.4146097 255 255 255 255 
0.5371 2.07358 -0.9058498 173 163 166 255 
0.19213 2.247728 0.05610009 254 255 254 255 
0.1932499 2.239784 0.04300996 254 255 254 255 
-1.01686 2.36511 -0.4507001 255 255 255 255 
0.52441 2.0392 -0.8601997 119 101 103 255 
0.4137 2.204735 0.1636502 255 255 255 255 
-0.99066 2.345964 -0.4234498 255 255 255 255 
0.1896199 2.203618 0.02085991 254 254 254 255 
-0.9878001 2.325294 -0.4153598 255 255 255 255 
-0.8477302 2.307474 -0.3690799 255 255 255 255 
0.29228 2.17234 0.1342103 255 255 255 255 
0.02679992 2.16383 -0.09402972 253 254 253 255 
-0.94262 2.285019 -0.3872497 255 255 255 255 
-0.1231701 2.15745 -0.1412199 201 192 190 255 
0.07888007 2.08757 -0.08559972 117 80 70 255 
0.1087999 2.06274 -0.1331299 88 54 45 255 
0.07978988 2.079 -0.07461005 102 56 46 255 
0.11182 2.05494 -0.1507199 77 55 49 255 
0.07913995 2.06169 -0.08390981 119 77 67 255 
0.07643986 2.06766 -0.07458001 152 108 98 255 
0.07426 2.05663 -0.07075006 110 65 56 255 
0.07491994 2.04428 -0.0705598 106 63 53 255 
-0.56458 2.12076 -0.22345 255 255 255 255 
0.07982993 2.0244 -0.06864005 135 92 84 255 
0.08738995 2.00955 -0.07585984 127 87 77 255 
0.07537985 2.0053 -0.07068998 106 61 50 255 
-0.7715399 2.12461 -0.2927898 255 255 255 255 
-0.64575 2.09669 -0.2544101 255 255 255 255 
1.851046 1.58702 0.0556499 255 255 255 255 
1.895972 1.55324 0.02964987 254 254 253 255 
0.07361007 1.85677 -0.06231005 142 97 87 255 
0.07527995 1.8316 -0.06190999 126 82 74 255 
0.96988 1.60638 -0.1765298 255 255 255 255 
0.07410002 1.81979 -0.0612901 139 97 86 255 
0.01136994 1.77864 -0.0628899 255 255 255 255 
0.06729984 1.76419 -0.05349001 137 93 86 255 
0.9467 1.52719 -0.1680401 255 255 254 255 
0.02691007 1.7528 -0.05666002 255 255 255 255 
1.633197 1.32581 -0.3040899 255 255 255 255 
1.03131 1.49051 -0.1098498 255 255 255 255 
1.0062 1.45923 -0.09444987 255 255 255 255 
1.00288 1.44161 -0.06829011 255 255 255 255 
0.1381099 1.55875 -0.3601798 108 99 98 255 
0.12605 1.53661 -0.3970397 255 255 255 255 
0.12236 1.5248 -0.3956198 255 255 255 255 
0.1401799 1.53189 -0.3402499 123 110 109 255 
0.12308 1.54688 -0.2858098 202 184 184 255 
0.1252201 1.51648 -0.4009699 255 255 255 255 
0.1289299 1.52304 -0.3338097 104 95 94 255 
0.1333001 1.52918 -0.3228 107 91 90 255 
-0.2590401 1.92935 0.9655401 255 255 254 255 
0.1194499 1.50087 -0.4011501 255 255 255 255 
0.12954 1.5102 -0.33472 248 248 247 255 
0.1108499 1.53048 -0.2927498 129 118 117 255 
0.1210899 1.52733 -0.2995199 105 92 91 255 
0.12902 1.48466 -0.3503298 255 255 255 255 
-0.2672701 1.8887 0.9564502 241 241 240 255 
0.03825998 1.49743 -0.1707901 255 255 255 255 
-0.24705 1.79235 0.96283 246 245 245 255 
-0.2418201 1.79891 0.9709 254 254 254 255 
0.004689932 1.36403 -0.2039398 255 255 255 255 
0.01427007 1.36433 -0.1782597 254 255 255 255 
0.01550007 1.36646 -0.1928099 254 255 255 255 
0.02215004 1.37434 -0.1429399 254 255 255 255 
0.12393 1.39417 0.0313102 189 149 139 255 
0.03183007 1.35397 -0.1537899 253 254 253 255 
0.04249001 1.36886 -0.03060997 105 74 64 255 
-0.2476001 1.6929 0.89492 251 251 251 255 
0.03338003 1.33478 -0.06331003 210 204 201 255 
-0.12731 1.33117 -0.2245702 255 255 255 255 
-0.12549 1.33991 -0.17919 255 255 255 255 
0.01145005 1.30472 -0.13949 85 57 50 255 
0.03408003 1.31512 -0.1010498 188 170 164 255 
0.03143001 1.3301 -0.02666986 128 98 87 255 
-0.1278501 1.32973 -0.1936501 255 255 255 255 
0.1602999 1.33554 0.2110902 248 248 246 255 
0.09204006 1.30215 0.05704987 254 254 254 255 
0.16212 1.32757 0.22109 254 255 255 255 
0.1552 1.31689 0.22114 255 255 255 255 
