ply
format ascii 1.0
comment Created by Open3D
element vertex 1305
property double x
property double y
property double z
property uchar red
property uchar green
property uchar blue
end_header
0.09341 1.23275 -0.0644101 49 25 21
0.0938899 1.22001 -0.0628599 54 28 24
0.0824099 1.2211 -0.06711 52 27 24
0.06865 1.2213 -0.0693301 67 41 39
0.12996 1.1902 -0.0167002 101 81 79
0.0879901 1.20974 -0.0640301 62 37 33
0.07529 1.20897 -0.0646399 51 26 23
0.12508 1.1768 -0.0174402 76 50 48
0.0934598 1.19836 -0.0605201 60 32 28
0.0815899 1.19879 -0.0638899 57 30 27
0.0689299 1.19808 -0.06466 62 36 32
0.0658801 1.20002 -0.0626902 56 30 27
-0.04438 1.26698 -0.20425 126 90 91
-0.0554299 1.2725 -0.20079 231 222 221
0.11708 1.16419 -0.01555 84 53 48
0.0894899 1.18354 -0.0591101 63 33 29
0.0601599 1.18968 -0.0625199 69 40 36
-0.04392 1.25877 -0.21268 108 81 81
-0.05263 1.26604 -0.21243 151 118 118
-0.07131 1.26454 -0.22122 213 199 199
0.12308 1.15284 -0.0118598 70 45 41
0.1224 1.1516 -0.00948991 70 44 41
0.0959001 1.165 -0.04888 70 37 31
0.05006 1.17491 -0.0412201 72 38 33
-0.05233 1.25781 -0.2207 97 67 67
-0.0439601 1.25059 -0.21918 225 219 218
-0.0607901 1.25544 -0.22742 97 68 68
-0.0711901 1.2567 -0.2298 136 106 107
-0.0808101 1.26274 -0.22752 232 225 224
0.10698 1.15451 -0.0468501 76 42 35
0.09728 1.15845 -0.05309 69 35 29
0.0869899 1.15915 -0.0586599 89 56 52
0.0525799 1.16956 -0.0549001 61 35 30
-0.0520301 1.24907 -0.22743 209 202 201
-0.07253 1.24767 -0.23556 110 87 88
-0.0709 1.25512 -0.23106 118 90 90
-0.08143 1.25445 -0.23532 140 117 118
-0.0808101 1.25481 -0.23589 140 118 118
-0.0822802 1.25329 -0.23703 127 105 105
-0.09167 1.25372 -0.24288 191 177 178
-0.10031 1.25304 -0.2393 234 229 229
0.09271 1.149 -0.0574202 67 33 29
0.0815299 1.14845 -0.0603198 74 41 37
0.0817699 1.1476 -0.0612601 74 41 37
-0.0752101 1.24502 -0.2386 127 108 109
-0.08202 1.24494 -0.24085 97 75 76
-0.10028 1.24611 -0.24831 145 128 129
-0.10131 1.25249 -0.24761 226 219 220
-0.0908999 1.24602 -0.24266 102 80 81
0.0969999 1.13994 -0.0601801 69 34 29
0.07566 1.13695 -0.0617398 72 40 36
0.06955 1.14821 -0.0616302 62 31 27
0.02915 1.13997 -0.03657 120 105 103
0.0297 1.14224 -0.0360698 107 91 89
-0.0773301 1.23797 -0.24287 207 201 200
-0.0947101 1.23678 -0.24796 95 76 78
-0.11005 1.2455 -0.25321 200 190 191
-0.10442 1.23732 -0.25344 79 57 60
0.0927999 1.13013 -0.06431 77 43 38
0.10256 1.1295 -0.0582098 74 40 34
0.0804698 1.1295 -0.0632099 71 38 34
0.07057 1.1289 -0.06577 67 35 31
-0.09869 1.22774 -0.25245 170 161 162
-0.11063 1.23678 -0.25762 95 74 77
-0.13128 1.2406 -0.27634 238 235 236
0.134 1.09454 -0.0234698 166 151 148
0.10469 1.11086 -0.0623201 58 24 18
0.09916 1.12073 -0.0644998 61 27 22
0.0866699 1.11968 -0.0653199 79 46 41
0.06195 1.11895 -0.0633301 73 42 38
0.04705 1.11156 -0.02884 79 49 46
0.0269899 1.11859 -0.0400599 194 186 185
-0.12609 1.23054 -0.27412 96 80 83
0.11887 1.0953 -0.05554 90 57 49
0.09302 1.11078 -0.0670098 71 38 33
0.04705 1.10447 -0.03517 70 40 38
0.05235 1.09378 -0.0344399 69 37 33
-0.12119 1.21925 -0.26846 124 112 114
-0.12797 1.22367 -0.27253 87 68 73
-0.14388 1.22579 -0.28816 125 112 115
0.0458798 1.08286 -0.0340499 67 37 35
0.0342998 1.09599 -0.0382198 93 74 73
-0.12684 1.21383 -0.27851 205 200 201
-0.14148 1.21366 -0.28894 121 111 113
-0.14857 1.21609 -0.29232 71 57 60
0.12726 1.07846 -0.0609101 70 41 33
0.0234899 1.07231 -0.0312499 208 201 200
-0.14649 1.20312 -0.29114 232 229 230
-0.15602 1.2043 -0.29909 167 159 160
-0.17393 1.20797 -0.30159 86 71 73
0.0977099 1.05835 -0.0666498 73 45 41
0.08547 1.05731 -0.0669998 69 39 35
0.0780799 1.066 -0.0627798 66 34 30
0.0663099 1.06765 -0.0655798 67 36 32
0.0360799 1.05756 -0.0334801 70 47 46
-0.16635 1.19172 -0.30687 235 233 233
-0.17388 1.19911 -0.3081 88 75 76
0.0914299 1.04722 -0.0668301 69 43 40
0.0766799 1.04439 -0.0633201 60 32 28
0.0600801 1.0558 -0.06222 80 50 46
-0.17578 1.18903 -0.31206 200 195 194
-0.18671 1.193 -0.31688 87 74 75
0.0854099 1.03661 -0.0683002 61 35 32
-0.18849 1.18068 -0.32245 182 177 177
-0.19675 1.18877 -0.32148 115 104 105
0.07619 1.02182 -0.0610298 55 29 25
0.07971 1.01423 -0.0616502 56 29 25
0.0665801 1.01276 -0.0612601 57 31 29
0.0739501 1.00431 -0.0634202 61 31 28
-0.23777 1.03234 -0.0422601 82 62 59
0.11592 0.96918 -0.0099701 136 122 121
-0.23777 1.02191 -0.0505299 100 76 74
-0.25253 1.025 -0.0525102 228 224 223
0.0771 0.9818 -0.0545801 65 35 31
0.0829899 0.96955 -0.0514101 60 30 26
0.06475 0.98152 -0.0575398 62 32 28
-0.24629 1.01542 -0.0533499 193 176 175
0.12393 0.93252 -0.00378982 219 216 215
0.11421 0.94086 -0.00129978 131 117 116
0.07724 0.96011 -0.0550698 64 34 29
0.0712399 0.97204 -0.05761 89 59 54
0.0514901 0.9707 -0.04958 64 34 29
-0.23731 1.00895 -0.0602898 169 135 134
0.11656 0.92221 0.00345 213 208 207
-0.14144 0.97771 -0.0378999 236 228 228
0.06216 0.94274 -0.0498299 71 39 34
0.0475199 0.93997 -0.0442499 62 33 29
0.02333 0.94073 -0.02882 100 80 77
-0.1187 0.96284 -0.0338 203 186 185
-0.13035 0.96236 -0.0353898 143 113 112
-0.22268 0.97742 -0.0579299 163 148 146
-0.24331 0.98553 -0.05903 172 158 156
-0.25431 0.98565 -0.0652398 235 231 231
-0.12482 0.95183 -0.03444 82 43 41
0.1085 0.88107 0.0226098 172 159 157
0.0724399 0.92078 -0.0496 83 54 49
0.05845 0.91925 -0.0496401 61 31 27
0.08252 0.90578 -0.0424599 55 27 23
0.06568 0.90943 -0.0500802 61 34 29
0.0706301 0.90197 -0.0494398 68 38 33
0.01022 0.90785 -0.0308699 172 152 147
0.00751996 0.89707 -0.0362901 109 85 79
-0.00771999 0.90306 -0.03832 142 119 113
0.0557699 0.88583 -0.0536002 64 32 28
0.0455201 0.88841 -0.0542201 64 33 29
-2.00272e-05 0.89443 -0.04538 77 53 46
-0.0431399 0.87991 -0.0476102 87 69 67
0.05251 0.86136 -0.0539302 57 29 24
0.05089 0.86253 -0.0537099 57 29 24
-0.00893998 0.86 -0.0361499 142 133 131
-0.0188501 0.86594 -0.0340099 151 140 137
0.0621099 0.84951 -0.04922 75 48 42
0.0448298 0.8483 -0.0504402 63 37 33
0.0727599 0.82499 -0.0397701 70 46 39
0.06797 0.83757 -0.0466398 59 33 28
0.0553 0.83813 -0.0500201 51 25 21
0.0377099 0.83521 -0.0459699 62 38 35
0.00233007 0.8371 -0.0234799 111 99 98
0.0474501 0.82498 -0.0473298 62 38 34
0.0666399 0.81374 -0.0423898 59 36 31
0.0726299 0.80239 -0.0396399 73 51 44
0.05388 0.81274 -0.04568 54 31 27
0.0634699 0.77837 -0.0409402 59 35 28
0.07811 0.71568 -0.0334801 73 50 43
0.07021 0.7242 -0.03062 64 42 35
0.08339 0.7016 -0.0261902 61 37 30
0.0450699 0.70241 -0.0357198 57 30 27
-0.00568008 0.69729 -0.00351995 214 209 207
0.0818698 0.68261 -0.0580301 69 48 43
0.0374 0.68119 -0.03377 82 56 53
0.08078 0.67361 -0.0669698 61 41 34
0.0432799 0.67107 -0.0370502 68 43 40
0.10129 0.67131 -0.0971898 82 61 54
0.0697899 0.66712 -0.0683998 51 29 22
0.06728 0.65657 -0.05765 54 32 25
0.0664198 0.65838 -0.05974 50 28 21
0.02227 0.65294 -0.01973 85 53 48
0.00810003 0.65114 -0.0113401 94 74 71
0.11435 0.66042 -0.0824398 88 68 62
0.0729599 0.65165 -0.0736298 87 62 56
0.0614901 0.64938 -0.0649399 66 41 35
0.0583799 0.65441 -0.0581002 56 32 26
0.0873299 0.65414 -0.0856499 79 55 49
0.0756199 0.65315 -0.0781602 94 71 64
0.0632799 0.64575 -0.0627999 72 46 40
-0.00586009 0.61438 -0.00322003 129 113 111
0.0738199 0.62782 -0.0841202 59 31 26
0.0667899 0.61842 -0.0924701 63 34 28
-0.25293 0.49708 0.079 234 228 226
-0.25233 0.47627 0.0756097 139 98 91
0.11396 0.44451 0.00693993 229 206 192
-0.10557 0.46102 0.0395799 152 134 129
-0.19143 0.45285 0.07198 171 132 126
0.10094 0.41848 0.0218702 221 196 181
-0.19835 0.44258 0.0651799 105 62 55
-0.22173 0.44545 0.0671702 113 85 81
0.04548 0.44344 -0.0258703 63 33 25
0.0313899 0.44373 -0.0292701 72 46 37
0.0242701 0.45683 -0.0345802 74 48 39
-0.18724 0.42282 0.0725198 91 50 43
0.0390301 0.43268 -0.02914 73 44 35
0.0917799 0.38168 0.0388499 186 166 154
-0.0833302 0.38298 0.0474902 85 54 45
0.0869999 0.34388 0.0520501 191 183 180
-0.0803599 0.38183 0.0482197 81 50 41
-0.10345 0.38453 0.0464797 94 62 47
0.07622 0.34762 0.0343499 125 99 91
-0.0580101 0.35706 0.0477701 77 57 50
-0.10329 0.37682 0.0351801 209 178 159
0.07745 0.32838 0.0422998 140 120 113
0.01863 0.37814 -0.033 77 49 36
-0.0668399 0.35215 0.0408998 86 73 57
-0.09413 0.3605 0.03685 208 178 156
0.0258 0.36561 -0.0346598 85 52 39
0.00414991 0.3753 -0.0299601 85 56 43
-0.08897 0.34406 0.0353899 189 176 151
0.05515 0.32334 0.00449994 86 47 37
-0.0864601 0.3356 0.02491 143 158 117
0.0630601 0.29723 0.0417099 128 97 93
0.0585101 0.29884 0.0228901 100 62 56
0.0613399 0.29924 0.0204101 101 64 59
0.10593 0.26316 0.0264001 225 214 217
0.0583899 0.27864 0.0013099 87 54 50
0.0972099 0.25949 -0.00567005 145 130 125
0.10775 0.2569 -0.0316701 194 170 157
0.06177 0.24536 -0.02774 87 69 58
0.04321 0.24441 -0.0188999 67 45 33
0.04268 0.24182 -0.0157499 68 46 34
0.0320899 0.2539 -0.0223798 64 46 31
0.0160899 0.25205 -0.0207701 84 67 47
0.0824499 0.24192 -0.0377903 168 150 136
0.0740099 3.68173 -0.00395981 69 46 37
0.0629098 3.66897 -0.00907961 67 41 33
0.0684099 3.66215 -0.0032498 51 34 30
0.05808 3.65903 -0.00673977 63 42 37
0.05938 3.62948 0.03069 123 119 118
0.0466599 3.63378 0.0197304 43 30 31
0.0282199 3.62368 0.0140303 51 35 35
0.04037 3.61146 0.0388101 44 30 30
0.0350099 3.60227 0.0356501 49 30 30
0.0393801 3.59331 0.0386604 70 47 45
0.00849986 3.58162 0.0184501 126 113 111
0.0460501 3.56781 0.0518602 184 172 168
0.03374 3.56819 0.0268 75 43 39
0.0455999 3.55706 0.0530203 185 171 167
0.0458999 3.55704 0.0490902 169 156 153
0.0401299 3.56172 0.0365904 86 51 45
0.0386798 3.56267 0.0344704 81 46 40
0.0301299 3.52502 0.0334504 76 38 35
-0.0135801 3.49307 0.0353301 225 222 220
-0.01353 3.49286 0.0354703 224 221 220
-0.0148001 3.49286 0.0337904 239 238 236
0.0413699 3.47964 0.0385402 108 55 44
0.0394399 3.46421 0.0357102 113 56 43
0.00284004 3.45786 0.0321902 170 156 152
0.0571001 3.39275 0.0509403 140 99 84
0.04441 3.39342 0.03841 122 60 44
0.04445 3.39396 0.0381702 122 60 44
0.0581799 3.38275 0.0502704 143 102 87
0.0585899 3.37209 0.0501702 138 96 81
0.0582199 3.3547 0.0488804 124 81 67
0.06656 3.33625 0.0526302 168 152 147
0.05599 3.33625 0.0519302 133 93 81
0.07813 3.30375 0.0605901 236 234 233
0.0354199 3.29649 0.0164602 86 63 55
0.02652 3.28576 0.0130403 218 212 208
0.03126 3.27676 0.0144904 190 180 175
0.0609798 3.26091 0.0416401 113 47 26
0.0982399 3.15927 0.0439504 156 139 132
0.10485 3.14576 0.0417703 226 222 220
0.0941999 3.12878 0.0196603 118 60 46
0.09413 3.12882 0.0195501 118 59 46
0.0999999 3.12847 0.0291403 135 90 82
0.0954099 3.09113 0.0235203 143 77 59
0.10619 3.08184 0.0244801 151 101 86
0.10024 3.07619 0.0225804 152 87 67
0.0914199 3.07683 0.00194004 128 64 50
0.03635 3.06797 -0.0772898 192 187 182
0.113 3.05837 0.0211704 149 105 92
0.11569 3.03964 0.0318201 188 168 159
0.11401 3.04874 0.02931 181 158 149
0.12915 2.98301 -0.01179 157 93 70
0.13448 2.97931 -0.00132964 156 111 92
0.11476 2.98721 -0.0217597 129 71 56
0.13161 2.97274 -0.0106499 141 78 54
0.11849 2.96276 -0.0246498 150 90 70
0.09443 2.95223 -0.0175497 90 58 48
0.1512 2.91762 -0.0129697 144 91 76
0.1536 2.90784 -0.0102699 153 107 95
0.1603 2.88887 -0.01317 168 129 119
0.16074 2.79196 -0.10183 178 144 134
0.15476 2.78538 -0.11809 156 121 111
0.17925 2.77813 -0.10759 164 135 122
0.20186 2.706 -0.0650899 162 151 150
0.17634 2.71439 -0.11479 79 52 47
0.1663 2.68371 -0.11465 62 34 28
0.1585 2.65524 -0.10663 72 44 40
0.15517 2.6452 -0.10056 58 30 26
0.19491 2.63445 -0.0684297 105 87 85
0.17855 2.53305 -0.0918 74 31 27
0.13667 2.52755 -0.10024 72 44 43
0.12306 2.52655 -0.0997398 225 221 220
0.15837 2.51631 -0.10365 87 44 38
0.12955 2.50732 -0.0999 150 133 130
0.16951 2.50319 -0.10907 88 42 34
0.16107 2.48949 -0.12554 133 96 87
0.16741 2.49299 -0.11333 110 67 56
0.15978 2.49068 -0.12647 132 95 86
0.13239 2.49077 -0.10723 125 100 95
0.15868 2.48116 -0.13436 92 63 56
0.15153 2.47168 -0.13383 100 81 78
0.16439 2.43096 -0.11079 58 24 21
0.23026 2.40818 -0.0882299 164 156 156
0.22129 2.3997 -0.0823 100 85 84
0.21461 2.38811 -0.07952 55 38 38
0.15261 2.39365 -0.10957 73 33 28
0.21354 2.35437 -0.0706299 205 202 202
-1.02218 2.48009 -0.49516 200 195 195
-1.01206 2.46277 -0.48782 135 126 128
-1.02042 2.46853 -0.49446 114 102 104
-1.00304 2.45746 -0.48174 212 208 209
-1.01076 2.45097 -0.48839 82 67 70
-1.01877 2.45678 -0.49522 94 79 82
-1.01874 2.44412 -0.49477 210 206 206
0.16533 2.32084 -0.10914 56 31 28
-1.01069 2.43816 -0.48785 160 151 153
0.15974 2.31163 -0.10849 49 24 20
0.16325 2.30094 -0.10215 58 29 25
-0.97371 2.4088 -0.45952 178 167 168
0.3593 2.23956 0.0976302 218 212 213
0.2794 2.28883 -0.13222 220 208 198
-0.97179 2.39919 -0.45941 102 84 87
-0.98127 2.40138 -0.46515 93 77 80
-0.9897 2.39987 -0.47105 210 206 206
-0.99793 2.40543 -0.46934 195 188 188
0.37762 2.22275 0.0987002 189 181 182
0.26459 2.286 -0.16461 193 147 109
-0.97237 2.38764 -0.45932 84 69 71
-0.98117 2.39403 -0.46581 132 123 124
-0.61684 2.02869 1.12579 154 144 143
0.14391 2.23135 -0.12374 71 43 37
0.69074 2.42055 -1.13149 238 236 234
0.68625 2.41499 -1.13508 135 121 114
0.65784 2.41359 -1.14477 216 210 206
0.00494003 2.20859 -0.09705 192 165 165
0.65425 2.40369 -1.15112 196 188 184
0.17 2.19965 -0.11906 47 26 24
-0.00370002 2.20596 -0.10425 136 100 100
0.66578 2.39502 -1.1469 64 39 29
0.65851 2.39709 -1.15294 94 74 67
0.65992 2.39712 -1.15224 80 59 51
0.19212 2.17968 -0.0647901 93 77 76
-0.15203 2.20397 -0.14221 229 213 214
0.0721099 2.17173 -0.0939701 63 44 42
0.06113 2.16959 -0.0860398 95 77 76
-0.1184 2.18806 -0.12685 82 40 40
0.1533 2.16709 -0.11513 57 33 29
0.0332201 2.16822 -0.0919898 227 223 222
0.15978 2.15824 -0.11467 52 28 24
-0.8583 2.26483 -0.3788 77 66 67
0.09009 2.11662 -0.0869401 203 196 195
-0.37416 2.17064 -0.21094 155 127 127
-0.36932 2.14175 -0.2065 231 227 226
-0.40055 2.1517 -0.20604 100 78 78
-0.42834 2.14424 -0.2077 201 192 192
-0.77453 2.19689 -0.32186 233 232 232
-0.3646 2.13109 -0.19846 110 101 101
-0.61263 2.16399 -0.28848 230 223 223
-0.59808 2.15524 -0.27407 119 99 101
-0.64 2.16068 -0.28561 231 225 226
-0.66315 2.15745 -0.29089 207 199 199
-0.56904 2.14484 -0.27699 152 141 142
-0.61615 2.13344 -0.27241 195 187 188
-0.0397501 2.11039 -0.38943 223 219 218
0.0256898 2.08171 -0.31501 110 100 100
0.0155899 2.08366 -0.33546 66 51 50
-0.0231199 2.09356 -0.3673 99 76 75
-0.28895 1.73112 1.05889 233 229 227
0.16739 1.95464 -0.0356901 120 105 103
0.16286 1.927 -0.0600298 58 31 27
0.12681 1.85 -0.0968397 59 35 27
0.16816 1.83069 -0.0593298 181 164 163
0.16207 1.82002 -0.0556901 90 63 62
0.16225 1.78808 -0.0600499 133 109 107
0.0780299 1.79415 -0.0804399 115 103 103
0.14874 1.7566 -0.0768498 75 44 41
0.14288 1.70787 -0.0718997 75 43 40
-0.13188 1.48616 0.5763 65 49 46
1.86984 1.52074 0.0752002 66 41 37
0.09096 1.67945 -0.0730699 65 35 31
0.0788 1.67892 -0.0774301 93 70 68
1.87495 1.51155 0.0769402 145 134 133
-0.0652502 1.41926 0.65238 236 220 218
0.11542 1.61735 -0.0940498 49 23 17
0.1413 1.56341 -0.0302099 99 67 63
0.12441 1.58598 -0.0779699 64 32 26
0.12537 1.58889 -0.07738 65 34 28
1.00866 1.54191 -0.14312 97 84 82
1.77541 1.41641 0.0348302 62 32 36
0.14475 1.54052 -0.02891 135 107 104
0.13643 1.54495 -0.0361198 84 43 37
0.12194 1.5567 -0.0771597 76 42 34
0.41777 1.50009 -0.0349601 221 181 173
0.14759 1.51674 -0.0255498 157 127 121
0.14419 1.52135 -0.0340999 112 80 76
0.12357 1.53813 -0.0798 87 53 45
0.60598 1.46681 -0.000959745 230 207 204
0.43364 1.49037 -0.0282601 150 88 76
0.12101 1.53528 -0.0804099 87 54 45
0.62428 1.45777 -0.0069102 207 160 154
0.46335 1.46674 0.00982011 93 37 28
0.39673 1.48186 -0.0204199 154 90 81
0.38604 1.48216 -0.02221 142 77 68
0.37523 1.48209 -0.0230001 184 120 109
0.96451 1.45653 -0.10298 132 126 125
0.65739 1.44672 -0.00519978 213 173 168
0.42264 1.45766 0.00970996 71 33 27
0.37697 1.46343 -0.00297009 67 14 9
0.9328 1.44558 -0.0946902 76 65 65
0.35586 1.45115 -0.00694978 76 45 41
0.76896 1.42215 -0.02748 225 205 202
0.32536 1.43381 -0.0020498 178 167 165
0.26112 1.43383 -0.00810992 84 29 22
0.91477 1.40857 -0.0781602 39 22 22
0.25414 1.42279 -0.00647008 67 24 20
0.22166 1.43009 -0.0181202 114 62 53
0.24721 1.41179 -0.00491988 66 34 32
0.22838 1.41935 -0.01522 73 30 25
0.85942 1.38054 -0.0673197 93 63 58
0.25427 1.40313 -0.00718009 233 229 228
0.24069 1.40137 -0.0052098 150 132 130
0.22245 1.40867 -0.0166601 56 21 19
0.25075 1.39386 -0.00905978 235 232 232
0.12424 1.39824 -0.057 70 39 34
0.95487 1.31932 -0.0543698 186 170 170
0.1227 1.3809 -0.0645899 66 35 30
1.60893 1.25626 -0.0345701 86 63 63
0.0917499 1.38649 -0.0785698 58 29 26
0.1315 1.36368 -0.0580901 89 62 57
0.09461 1.36552 -0.0796498 55 26 22
0.11157 1.32743 -0.0671099 49 25 21
0.09901 1.32222 -0.0683402 47 22 18
1.32675 1.26781 -0.2135 211 201 202
1.08018 1.23595 -0.0708898 68 50 52
0.10266 1.30889 -0.0588602 46 22 19
1.49217 1.18017 -0.06079 80 59 56
0.0959001 1.28205 -0.0613202 46 24 20
1.49979 1.16699 -0.11045 190 172 167
1.46078 1.17288 -0.11635 135 113 109
1.49689 1.16259 -0.12136 94 71 68
1.43674 1.16909 -0.11439 74 52 51
0.12011 1.2349 -0.0241598 67 41 37
0.0215199 1.28473 -0.14763 58 35 32
0.1046 1.21746 -0.0542802 52 25 21
-0.01789 1.27662 -0.188 146 110 109
0.11071 1.18434 -0.0356401 73 40 35
-0.02791 1.27387 -0.19996 112 77 77
0.1054 1.16447 -0.0419902 71 39 31
0.0601098 1.15898 -0.0585297 81 59 54
0.11462 1.12845 -0.0335001 85 53 46
0.02246 1.13217 -0.04429 239 238 237
-0.11578 1.22751 -0.26306 68 50 53
-0.13415 1.22112 -0.28604 70 56 58
0.1142 1.03438 -0.0357598 42 21 18
0.0716999 1.0549 -0.0621199 60 32 29
0.09043 1.02388 -0.0634302 54 31 28
-0.20055 1.16725 -0.32107 234 232 232
0.09079 1.01543 -0.05832 51 27 25
0.0829999 0.99239 -0.0522598 55 28 26
0.0883601 0.98057 -0.0479902 52 26 22
0.08691 0.97825 -0.0433602 52 25 22
-0.25422 1.01871 -0.0633902 232 227 227
-0.20607 0.98663 -0.0529698 111 73 69
-0.13676 0.95034 -0.0347599 66 32 30
-0.14619 0.9524 -0.0423102 89 63 61
0.00846004 0.90839 -0.0321502 171 154 149
-0.00193 0.90124 -0.0322999 133 111 105
-0.06288 0.89628 -0.05937 127 112 108
0.0686901 0.86104 -0.0528702 61 34 29
0.0150099 0.85464 -0.03377 56 37 35
0.0150099 0.85464 -0.03377 56 37 35
0.00670004 0.83576 -0.0206599 60 43 41
-0.00480008 0.83625 -0.0281801 232 230 229
0.0789499 0.81398 -0.0376701 74 50 43
0.0370901 0.80775 -0.0410699 55 32 29
0.01687 0.79114 -0.0223698 66 50 49
0.07869 0.79078 -0.0366101 70 47 39
0.0766199 0.77869 -0.0367898 71 47 39
0.01947 0.76512 -0.00936025 59 35 31
0.00624991 0.75975 -0.0135202 148 138 136
0.0785 0.73975 -0.0356302 67 44 36
0.0485899 0.72548 -0.0412001 51 28 24
0.0702801 0.70249 -0.0307898 64 43 37
0.01296 0.66542 0.00264984 72 43 39
0.0657999 0.67024 -0.0498299 49 26 21
0.0548301 0.67014 -0.03588 56 30 26
0.04988 0.66204 -0.0422 61 36 31
0.08336 0.66727 -0.07976 96 74 67
0.07828 0.6427 -0.0840902 85 62 57
-0.0803502 0.44786 0.04913 135 113 106
-0.08919 0.45711 0.0467401 137 120 115
-0.11937 0.46985 0.02807 216 208 204
-0.0967801 0.44443 0.0447498 88 59 50
0.04724 0.44845 -0.0320801 62 31 23
0.0826399 0.33885 0.0451999 155 143 135
0.0636899 0.34781 0.0320301 94 55 47
0.0697999 0.33988 0.0431099 112 83 74
0.04722 0.36848 -0.0158701 71 34 27
-0.0807099 0.35871 0.0254097 193 170 145
0.0648 0.32566 0.02915 96 59 52
0.0645499 0.23812 -0.0382399 104 87 74
0.0534799 0.24512 -0.03723 69 50 38
0.0378499 0.23723 -0.0251603 73 54 41
0.0641398 0.2362 -0.0534601 157 139 126
0.07722 0.2304 -0.0614099 194 168 153
0.06286 0.23329 -0.0672302 188 165 151
0.0518699 3.6972 -0.0106599 154 114 87
0.04932 3.65682 -0.0206296 128 108 103
0.0616898 3.65244 0.00117 39 23 21
0.0639 3.65524 -0.0019199 45 28 25
0.06252 3.64733 0.0100501 72 60 60
0.05987 3.63847 0.0189403 84 77 76
0.0492299 3.62051 0.0356501 54 44 43
0.0533299 3.61172 0.0416601 186 181 180
0.05094 3.61202 0.0444001 184 181 181
0.00941992 3.59751 0.0127505 149 144 143
0.0190299 3.59028 0.01909 68 48 46
0.00424004 3.59047 0.0143503 218 215 214
0.0459299 3.57874 0.0527805 195 187 184
0.02284 3.57497 0.0251601 66 38 35
0.01142 3.57509 0.02298 64 42 39
-0.00659013 3.57241 0.01631 208 203 203
0.0452399 3.55705 0.0524205 186 170 166
0.04497 3.54643 0.0504702 155 133 128
0.0383899 3.5475 0.0392101 92 50 44
0.0225201 3.54809 0.02893 67 35 32
0.04496 3.5415 0.0431402 113 78 71
0.0439799 3.52592 0.0531901 156 135 129
0.05095 3.51982 0.0528601 220 207 203
0.04282 3.51532 0.0543602 147 124 119
0.0206299 3.50522 0.0270303 65 31 26
0.04316 3.49952 0.0467604 111 74 68
0.0362499 3.49931 0.0378202 96 49 41
0.0515499 3.4939 0.0482801 206 195 191
0.0483699 3.49047 0.0481003 153 129 123
0.04987 3.47983 0.0460704 141 111 104
0.0373099 3.47052 0.0344704 109 51 39
0.02478 3.46397 0.02437 90 43 34
0.0273099 3.45316 0.0210603 87 42 31
0.02145 3.44737 0.0309504 92 46 36
0.0306199 3.43832 0.0273402 99 46 33
0.0534799 3.4327 0.0459703 112 71 59
0.0441599 3.43252 0.0390003 115 56 38
0.0581601 3.42031 0.0588801 212 201 197
0.0527699 3.42439 0.0451 121 72 57
0.0513899 3.42403 0.0503004 124 79 66
0.04725 3.41832 0.0413101 118 58 40
0.0464001 3.41817 0.0412 117 57 39
0.0536001 3.41388 0.0495704 129 83 68
0.05461 3.41288 0.0425504 123 70 53
0.04983 3.40811 0.0450204 125 67 48
0.02299 3.40823 0.0305503 96 48 38
0.0163801 3.4136 0.02579 118 88 79
0.0617299 3.39898 0.0582503 225 216 211
0.04969 3.39897 0.0459603 121 60 42
0.05544 3.40322 0.04896 141 95 79
0.0359099 3.40426 0.0284503 105 50 38
0.0251501 3.39813 0.0235103 98 55 42
0.05194 3.38814 0.04471 125 63 46
0.03092 3.39328 0.0312203 110 52 38
0.0520699 3.37744 0.0441502 123 62 44
0.04882 3.38167 0.0250104 120 60 46
0.03952 3.38429 0.0370601 113 56 44
0.0262999 3.36674 0.0209802 128 101 91
0.05284 3.36653 0.04299 133 72 54
0.06252 3.34554 0.0508202 147 117 108
0.05229 3.34545 0.0470303 143 89 73
0.06813 3.31762 0.0526202 170 150 143
0.0614099 3.32696 0.0515702 116 82 73
0.05795 3.31755 0.0492003 109 63 51
0.0515699 3.32674 0.0473803 95 50 37
0.0725899 3.30831 0.0545204 221 212 208
0.0531599 3.30821 0.04547 108 50 34
0.04318 3.31393 0.0350202 88 39 25
0.03371 3.30182 0.01839 76 52 45
0.07373 3.28987 0.0524104 214 202 198
0.04549 3.29165 0.0214704 91 44 32
0.0714199 3.28066 0.0472701 149 106 90
0.0567899 3.27156 0.0337403 103 44 29
0.0386601 3.27234 0.02049 94 57 48
0.0543499 3.2607 0.0275901 104 51 38
0.0370998 3.26264 0.0337604 82 42 32
0.03355 3.26621 0.01383 194 184 179
0.0818999 3.25157 0.0480502 216 206 200
0.0617099 3.25173 0.0445002 113 49 30
0.08848 3.23179 0.0473802 228 214 207
0.08075 3.23188 0.0396102 137 82 62
0.0465701 3.22908 0.01561 95 55 46
0.0691299 3.22125 0.0407703 127 61 41
0.0550799 3.22474 0.0210703 107 51 37
0.0453501 3.2186 0.01595 104 68 58
0.0403199 3.22289 0.0100301 197 184 180
0.08654 3.21224 0.0403002 159 113 96
0.0665 3.21675 0.0194004 121 62 45
0.0544999 3.21418 0.0210803 108 51 35
0.0701599 3.20637 0.0384801 135 62 39
0.06968 3.20086 0.01735 146 86 68
0.0532598 3.19765 0.0151904 107 62 50
0.08604 3.19275 0.0359104 143 83 62
0.0469499 3.18936 0.00994043 166 148 142
0.0879199 3.18164 0.0347803 161 109 93
0.05288 3.17891 0.0117 107 75 66
0.0441298 3.18036 0.00495033 232 228 226
0.0590799 3.1677 0.0107601 99 60 50
0.0483201 3.16994 0.0055602 218 213 210
0.0532999 3.16001 0.00532035 196 186 183
0.05809 3.15002 0.00497035 156 139 133
0.06761 3.12841 0.00243024 117 83 77
0.06023 3.13068 0.00235013 185 171 166
0.0947199 3.12028 0.00912026 119 54 39
0.06517 3.12075 0.00146035 140 115 108
0.09742 3.11041 0.0322902 132 78 64
0.0974801 3.11044 0.0322502 132 78 64
0.06054 3.1127 -0.00400993 231 228 226
0.0695898 3.09519 -0.00519964 174 160 156
0.10732 3.08379 0.0132301 148 87 67
0.1134 3.08306 0.01805 148 107 93
0.0755401 3.0813 -0.00395986 128 95 87
0.0664399 3.08634 -0.00912973 238 235 233
0.08009 3.07226 -0.00181982 113 66 53
0.07146 3.07231 -0.00726005 182 168 163
0.0425401 3.07324 -0.07146 231 226 221
0.10628 3.06731 0.0220001 154 97 79
0.0630701 3.06092 -0.0632698 167 153 147
0.0583499 3.06554 -0.0515196 214 208 204
0.11854 3.04852 0.0364201 213 208 204
0.10735 3.05035 -0.00146982 156 88 66
0.05515 3.05734 -0.0692398 92 74 65
0.05073 3.05367 -0.0657599 77 61 53
0.0345099 3.05739 -0.07743 218 216 213
0.11066 3.03985 0.02505 155 109 93
0.10784 3.04289 -0.0137198 136 73 54
0.0593998 3.04174 -0.0571296 59 43 38
0.11991 3.02954 0.0310901 211 199 193
0.11379 3.03115 -0.0160796 131 68 50
0.06481 3.03624 -0.0502198 72 57 52
0.11802 3.01809 0.0346301 215 203 198
0.11609 3.02069 -0.0154698 139 76 59
0.06691 3.02689 -0.0413797 85 74 69
0.11785 3.0082 -0.000729775 149 81 63
0.1137 3.01228 0.0287402 174 140 128
0.11821 3.01039 -0.0160496 154 90 73
0.07247 3.01054 -0.0361597 217 216 214
0.11382 3.00094 -0.0190399 89 32 17
0.09622 2.98657 -0.0174596 91 50 40
0.12424 2.95401 -0.0246198 131 67 44
0.14101 2.94305 -0.000659685 157 109 94
0.13013 2.94535 -0.0260699 147 83 60
0.10549 2.944 -0.0235998 99 56 42
0.0994499 2.93037 -0.0344198 192 182 178
0.13473 2.92623 -0.0259897 129 66 47
0.17851 2.83554 -0.0198901 169 144 140
0.17156 2.8381 -0.0653498 188 141 130
0.18526 2.81499 -0.02299 187 169 165
0.18211 2.81439 -0.0466196 128 84 77
0.19066 2.80626 -0.02371 227 221 219
0.17659 2.80893 -0.0813 152 111 100
0.18273 2.7993 -0.0821497 164 127 115
0.17459 2.80183 -0.0892799 159 120 109
0.18594 2.78947 -0.0806897 109 77 63
0.18146 2.78521 -0.0999 137 107 93
0.18186 2.79208 -0.09077 124 90 76
0.186 2.77539 -0.0994799 181 154 138
0.18825 2.78248 -0.09186 156 127 112
0.16833 2.77587 -0.11761 148 120 108
0.19733 2.7565 -0.10443 177 151 141
0.19023 2.76044 -0.10939 178 151 139
0.18249 2.75726 -0.11653 176 148 137
0.17765 2.76256 -0.11423 168 140 128
0.19873 2.74695 -0.10737 71 46 40
0.19611 2.73886 -0.0910499 70 44 39
0.19226 2.73663 -0.10427 52 26 22
0.12951 2.73687 -0.11296 61 30 27
0.19017 2.72614 -0.10543 48 22 20
0.18332 2.73285 -0.11133 49 21 17
0.13224 2.72761 -0.10839 77 47 44
0.12572 2.72806 -0.11503 154 140 139
0.18753 2.71574 -0.10601 71 46 43
0.18206 2.72248 -0.11228 55 28 25
0.17989 2.72455 -0.11411 54 27 23
0.1712 2.72152 -0.11924 51 23 18
0.15794 2.7184 -0.11411 69 39 34
0.12805 2.71875 -0.11014 92 70 67
0.18139 2.71171 -0.1138 70 45 40
0.15292 2.7089 -0.11392 61 32 27
0.13457 2.70774 -0.10739 58 31 27
0.12066 2.71249 -0.11381 228 225 224
0.1227 2.7084 -0.1052 135 122 121
0.18887 2.69123 -0.0614898 79 57 54
0.18992 2.69998 -0.0920098 52 27 23
0.18488 2.70516 -0.10534 60 36 30
0.13985 2.69857 -0.10769 56 28 24
0.12371 2.6976 -0.10533 140 129 128
0.12072 2.70213 -0.11433 236 234 233
0.18258 2.68654 -0.10703 63 37 31
0.18181 2.69449 -0.10527 53 28 23
0.17574 2.69169 -0.11716 60 34 29
0.13184 2.68936 -0.10694 85 66 63
0.19077 2.67254 -0.0710599 66 42 38
0.18452 2.68098 -0.0973499 54 29 23
0.13047 2.67864 -0.10643 115 99 98
0.12274 2.68357 -0.11143 237 235 234
0.18423 2.67041 -0.0971897 77 51 45
0.16722 2.6733 -0.11114 71 44 40
0.1501 2.67431 -0.11037 72 42 38
0.17579 2.65531 -0.10496 60 33 29
0.11933 2.65835 -0.10254 237 235 234
0.12531 2.65249 -0.10046 142 131 130
0.18796 2.63561 -0.0752699 65 40 37
0.17974 2.64423 -0.10033 71 43 39
0.18383 2.6316 -0.10077 75 49 45
0.15406 2.62719 -0.10376 49 21 18
0.18167 2.61101 -0.10219 58 29 26
0.18458 2.57716 -0.0806201 110 79 78
0.1794 2.57765 -0.1069 91 63 59
0.17272 2.56913 -0.10928 67 41 38
0.1281 2.56767 -0.0968297 127 113 113
0.12866 2.55718 -0.09742 93 78 78
0.12299 2.56227 -0.10461 226 224 224
0.18041 2.54458 -0.08442 58 22 19
0.1732 2.55117 -0.10965 52 21 18
0.13922 2.54693 -0.09811 63 33 31
0.12789 2.54618 -0.0968397 136 118 119
0.17402 2.54194 -0.1008 63 28 24
0.17175 2.54091 -0.10004 63 27 23
0.17224 2.541 -0.10044 63 27 24
0.17224 2.541 -0.10044 63 27 24
0.1394 2.53634 -0.0988901 54 25 23
0.12345 2.53744 -0.10072 233 230 230
0.18477 2.52811 -0.0850599 73 30 24
0.17593 2.52278 -0.0926297 75 30 25
0.17494 2.53142 -0.10198 75 34 29
0.1645 2.53167 -0.10219 69 30 27
0.1645 2.53167 -0.10219 69 30 27
0.18739 2.51178 -0.0729797 117 80 76
0.13812 2.51381 -0.0964797 75 42 38
0.17306 2.5117 -0.10421 79 33 28
0.16325 2.51159 -0.10795 90 46 40
0.17745 2.50261 -0.10174 85 38 31
0.14611 2.49757 -0.1074 123 87 78
0.17869 2.49348 -0.10814 86 39 31
0.18155 2.48354 -0.0991199 77 31 24
0.1773 2.48524 -0.11553 127 83 73
0.18417 2.46867 -0.06583 73 36 31
0.18346 2.47829 -0.08828 73 29 23
0.1759 2.47543 -0.11856 147 107 98
0.1707 2.48299 -0.12539 142 102 92
0.14944 2.48426 -0.12942 110 83 78
0.14434 2.48363 -0.12324 118 93 88
0.11627 2.47876 -0.11305 110 101 101
0.17683 2.46518 -0.0974901 99 57 49
0.17772 2.46511 -0.11533 67 29 22
0.17109 2.46766 -0.12824 97 63 56
0.18403 2.45146 -0.0911 75 34 26
0.1794 2.45666 -0.0999997 63 24 17
0.0999699 2.45351 -0.11825 216 213 213
0.17881 2.45185 -0.11611 58 24 18
0.18088 2.44631 -0.10146 70 31 24
0.16753 2.4509 -0.12377 59 31 27
0.14186 2.45043 -0.13307 27 14 14
0.10045 2.45349 -0.129 236 236 236
0.17696 2.43946 -0.10731 73 36 31
0.17197 2.44213 -0.11549 64 32 28
0.17305 2.44429 -0.11844 62 30 26
0.15656 2.44348 -0.13368 41 18 16
0.19697 2.42386 -0.10373 118 76 66
0.17104 2.43446 -0.12317 55 22 17
0.21214 2.39652 -0.0886901 35 14 13
0.20769 2.3988 -0.10269 60 32 29
0.20492 2.39444 -0.10066 60 34 31
0.20534 2.38487 -0.0856297 36 16 15
0.19562 2.38583 -0.11094 66 39 35
0.18933 2.37675 -0.11247 95 69 65
0.11665 2.37504 -0.12212 220 212 209
0.11168 2.36655 -0.12554 119 102 98
0.17352 2.35864 -0.11009 52 22 18
0.16726 2.35977 -0.11679 77 44 40
0.1644 2.3588 -0.1166 74 40 36
0.12881 2.35888 -0.12397 78 44 39
0.11701 2.35737 -0.13016 77 49 44
0.10926 2.36134 -0.1415 124 112 110
0.10654 2.34102 -0.11861 51 29 26
0.10138 2.35281 -0.13031 99 84 82
0.19816 2.32954 -0.0432198 236 234 233
0.18899 2.31898 -0.0399998 176 167 166
0.12221 2.33058 -0.11054 51 26 22
0.10266 2.33382 -0.12337 187 179 178
0.09496 2.34151 -0.13005 203 198 197
0.17337 2.32368 -0.1025 53 28 24
0.10681 2.32901 -0.11086 87 70 69
0.1036 2.32218 -0.11741 224 219 218
0.48426 2.27262 0.1687 163 154 154
0.18196 2.31189 -0.10275 50 23 19
0.172 2.31179 -0.1069 50 25 21
0.10712 2.31649 -0.10831 201 192 191
0.17886 2.30361 -0.10882 60 31 25
0.17805 2.29566 -0.1155 80 50 43
-0.60492 2.02584 1.13545 112 86 81
-0.61635 2.03008 1.12766 136 122 121
0.21962 2.29266 -0.16339 132 97 87
0.18649 2.28964 -0.11382 106 72 60
0.41827 2.2339 0.12012 199 195 195
0.28452 2.28542 -0.14969 184 161 143
0.37407 2.23206 0.10809 51 31 34
0.34881 2.22854 0.0870101 98 80 83
0.34304 2.23063 0.0797903 152 140 141
0.32573 2.22689 0.0780503 208 199 200
0.33151 2.23797 0.0689303 236 234 233
0.38455 2.22244 0.10456 215 210 210
0.34936 2.22088 0.0811102 60 38 42
0.34007 2.22762 0.0674502 111 90 94
0.30514 2.21549 0.0839102 170 154 155
0.31304 2.22093 0.0822703 212 200 199
0.35846 2.21274 0.0956799 230 226 226
0.31409 2.20691 0.0800402 76 54 57
0.31116 2.20697 0.0779402 77 55 57
0.26506 2.26141 -0.17733 140 106 89
0.256 2.26121 -0.18015 73 39 25
0.25133 2.25534 -0.17715 66 35 25
0.24603 2.26031 -0.18106 62 30 19
0.32006 2.19814 0.0788099 197 189 189
0.3014 2.1992 0.0687201 59 44 46
0.21648 2.24826 -0.15402 59 31 28
-0.83665 2.24516 -0.35208 207 203 203
0.31592 2.19178 0.0710699 231 229 229
0.2968 2.19069 0.0637099 186 180 181
0.20015 2.22756 -0.12935 56 32 28
0.18589 2.23124 -0.14158 52 29 25
0.0220599 2.21129 -0.0655401 228 219 218
0.18122 2.22068 -0.1393 62 40 38
0.16203 2.21154 -0.13052 50 28 24
-0.01422 2.20701 -0.10586 175 142 143
-0.12049 2.20005 -0.1175 179 152 151
-0.13219 2.1995 -0.11321 201 180 179
0.17989 2.19928 -0.11679 38 20 19
-0.13298 2.19543 -0.12306 126 88 87
0.2297 2.16714 0.0343201 231 226 225
0.17372 2.18963 -0.11545 45 27 24
0.04654 2.1792 -0.0937498 55 31 30
-0.12747 2.18918 -0.13745 78 37 36
-0.55362 2.19362 -0.25596 219 216 215
0.18437 2.17374 -0.0702799 31 14 13
0.16948 2.17839 -0.11445 71 55 52
-0.20632 2.18437 -0.18521 104 67 67
-0.22556 2.18612 -0.19901 92 53 50
-0.32692 2.18167 -0.20595 206 193 192
0.69184 2.41104 -1.1325 191 185 182
0.65371 2.41573 -1.13735 238 236 234
0.20013 2.14009 0.0124003 218 212 210
0.197 2.14795 0.00346012 77 54 52
0.18898 2.1608 -0.0610197 126 105 102
0.18352 2.16291 -0.0705798 34 16 13
0.16505 2.16748 -0.11453 49 28 25
-0.21974 2.17742 -0.19969 98 71 71
-0.23586 2.17738 -0.19345 75 38 38
-0.37608 2.1736 -0.22503 147 120 118
0.69268 2.403 -1.13255 212 206 203
0.19373 2.13498 0.00508995 155 144 142
0.16763 2.15683 -0.10796 50 30 27
-0.50031 2.16338 -0.24944 61 36 37
-0.54032 2.17181 -0.25967 152 138 137
0.17429 2.14134 -0.0887397 41 25 20
0.17151 2.14854 -0.09987 41 22 18
0.16334 2.14803 -0.10963 49 26 23
-0.52369 2.16196 -0.25894 46 24 26
-0.68683 2.16 -0.28904 204 197 198
0.6987 2.38834 -1.13373 239 238 237
0.68987 2.38815 -1.13528 126 113 110
0.18266 2.12889 -0.0715001 47 28 25
0.16966 2.13711 -0.10093 48 26 22
-0.43821 2.1477 -0.23128 231 227 226
-0.49238 2.14952 -0.23904 166 154 155
-0.61338 2.15115 -0.27059 104 83 83
0.1856 2.11064 -0.00960999 222 219 218
0.17145 2.10446 -0.0171798 110 99 97
0.17803 2.12336 -0.0806497 66 49 44
0.1716 2.12956 -0.0876897 42 24 19
0.16861 2.12587 -0.10028 53 30 25
0.16139 2.12739 -0.10741 50 25 20
-0.74934 2.14378 -0.31273 126 110 111
0.67913 2.37352 -1.1362 44 25 23
0.17096 2.1185 -0.0876897 47 27 22
0.16884 2.1114 -0.0986698 51 28 23
-0.64814 2.12551 -0.28402 188 182 182
0.17008 2.09966 -0.09316 45 23 18
0.16382 2.10285 -0.10154 48 22 16
-0.67389 2.12016 -0.29281 233 231 231
0.16472 2.09438 -0.10977 65 38 32
0.16928 2.08428 -0.10727 56 31 26
0.0794799 2.0948 -0.17134 228 223 222
0.0884299 2.08901 -0.18856 156 127 125
0.0905399 2.08406 -0.20845 75 40 39
0.075 2.08734 -0.21615 80 39 38
0.0702899 2.09146 -0.23645 83 45 43
0.08202 2.08657 -0.24135 125 98 98
0.05531 2.08445 -0.24072 70 39 41
0.05619 2.0792 -0.23554 111 89 90
-0.00617003 2.10731 -0.36341 208 200 199
-0.0132999 2.10792 -0.36922 225 220 219
0.0516601 2.07626 -0.24474 221 216 216
0.00695991 2.09009 -0.34766 61 42 40
-0.03595 2.09236 -0.39017 74 57 56
-0.0515799 2.10031 -0.41288 90 81 79
0.11399 1.92576 -0.0966199 58 37 31
0.11019 1.90903 -0.08864 54 32 26
0.10385 1.91465 -0.0954398 42 21 18
0.15113 1.90372 -0.0957001 58 33 27
0.10237 1.90275 -0.0954498 40 19 16
0.09425 1.90763 -0.10042 144 135 134
0.10938 1.89386 -0.09563 47 25 22
0.0915599 1.89729 -0.10185 201 193 192
0.08988 1.892 -0.10269 222 216 215
0.12267 1.88383 -0.09491 53 31 27
0.10585 1.88105 -0.09314 45 25 21
0.0957599 1.88512 -0.0962499 80 64 62
0.0867701 1.87988 -0.10123 232 229 228
0.1625 1.86238 -0.06017 60 35 32
0.10136 1.87184 -0.09455 42 23 20
0.0910299 1.86651 -0.0995401 176 168 166
0.0861099 1.86963 -0.10337 235 231 230
0.10531 1.86147 -0.09037 50 30 26
0.08972 1.85668 -0.09247 118 105 104
0.0843699 1.86454 -0.0990098 233 230 230
0.16314 1.84113 -0.0578998 72 47 45
0.10277 1.85109 -0.0936001 48 27 23
0.09269 1.85027 -0.0936301 99 85 83
0.09027 1.85582 -0.10167 205 199 198
0.15851 1.82814 -0.0526498 62 32 32
0.0954299 1.83446 -0.0820502 49 26 24
0.085 1.84196 -0.0967501 220 217 216
-0.18763 1.56848 0.8028 236 226 224
0.15321 1.8185 -0.0553697 64 31 28
0.16834 1.79862 -0.0621599 201 188 185
0.0825 1.80734 -0.0827502 98 85 84
0.0739798 1.80194 -0.08969 237 236 235
0.14948 1.7966 -0.0874499 63 32 27
0.14152 1.8 -0.0885299 52 24 19
0.13485 1.79345 -0.0953 51 26 22
0.1478 1.78309 -0.0804699 98 67 62
0.14177 1.78857 -0.0882901 85 56 51
0.14658 1.77113 -0.08014 62 30 25
0.1418 1.77765 -0.0891398 50 21 17
0.56771 1.9614 -0.68781 208 195 191
0.13819 1.69272 -0.0605 73 40 37
0.13682 1.70053 -0.0783099 63 32 28
0.0915499 1.65987 -0.07277 55 27 24
0.07043 1.66508 -0.0878199 230 223 220
0.07915 1.6461 -0.07632 80 59 58
0.13472 1.6406 -0.07874 99 69 63
0.0698299 1.64192 -0.0863298 231 225 224
0.0627999 1.65181 -0.13143 235 227 226
0.13184 1.62966 -0.0813001 61 33 28
0.13629 1.61938 -0.07351 60 31 26
0.12757 1.61951 -0.08646 56 29 25
0.12996 1.59619 -0.0763801 80 49 43
0.13339 1.57283 -0.0398901 76 39 35
0.13597 1.57319 -0.03976 74 37 33
0.13246 1.57988 -0.07102 74 39 33
0.1323 1.58066 -0.07035 77 42 36
0.13278 1.55856 -0.03736 82 43 39
0.13185 1.57613 -0.0716799 69 33 27
0.11348 1.57866 -0.0887102 94 62 57
0.0541799 1.56542 -0.0642198 224 221 221
0.12882 1.56788 -0.0779799 75 39 32
0.12264 1.55661 -0.0765198 76 42 35
0.13626 1.52349 -0.0378698 81 41 35
0.11369 1.53911 -0.0870598 78 46 38
0.14817 1.5055 -0.0268301 197 178 174
0.14195 1.50894 -0.0339697 87 53 48
0.13511 1.50262 -0.0426801 77 40 33
0.12654 1.50813 -0.0728301 72 40 33
0.12094 1.51314 -0.08016 85 54 47
0.35181 1.46344 -0.0114997 71 19 12
0.60444 1.46276 0.00542987 225 197 194
0.24846 1.45077 -0.0217298 185 133 122
0.6057 1.45733 -0.00810992 198 139 128
0.26055 1.43848 -0.0113801 93 34 26
0.24435 1.4311 -0.00392997 92 34 27
0.24257 1.44291 -0.0171198 155 95 84
0.3097 1.4325 -0.00494992 140 121 119
0.24122 1.42342 -0.0100998 73 26 21
0.20876 1.43076 -0.0216697 159 117 107
0.69859 1.43899 -0.0181302 203 157 150
0.23312 1.41207 -0.00881993 64 28 24
0.21407 1.41832 -0.0146497 89 47 42
0.20161 1.41045 -0.0144399 78 44 38
0.19807 1.42211 -0.0195001 180 144 135
0.19067 1.4105 -0.0174597 90 60 54
0.18514 1.41597 -0.0278801 122 93 88
0.20987 1.40455 -0.0115799 56 24 20
0.19795 1.40208 -0.0198301 62 36 30
0.19354 1.39963 -0.0180601 66 37 33
0.18654 1.40397 -0.02609 80 55 49
0.97125 1.4683 -0.10758 183 177 177
0.19964 1.38925 -0.0153202 64 41 38
0.17119 1.38588 -0.0125598 67 43 38
0.15047 1.39356 -0.0353001 96 68 62
0.13552 1.40194 -0.0398802 102 71 62
0.93881 1.45678 -0.0986799 77 67 67
0.18457 1.38361 -0.01798 57 32 28
0.16814 1.38851 -0.02503 68 45 39
0.14632 1.38108 -0.0325898 62 36 30
0.14199 1.39373 -0.04325 89 59 51
0.94568 1.44536 -0.09667 48 35 35
0.14558 1.37055 -0.03734 57 33 29
0.1418 1.38147 -0.0525898 73 43 37
0.94037 1.43327 -0.0937799 100 89 89
0.12377 1.36873 -0.0627898 58 29 24
0.13955 1.35148 -0.0387 51 30 27
0.14501 1.34491 -0.0294698 42 23 22
0.12867 1.35048 -0.0561098 42 17 13
0.1068 1.35278 -0.07805 59 33 29
0.0604999 1.34304 -0.0525202 69 43 39
0.04814 1.34237 -0.0514201 130 116 114
0.89463 1.39715 -0.08083 136 114 109
0.12158 1.33756 -0.0555199 52 27 22
0.06246 1.32952 -0.0486502 65 38 33
0.0476699 1.32965 -0.0511502 118 104 102
0.0457099 1.33178 -0.0522898 158 149 148
0.89397 1.37806 -0.0714902 82 64 62
0.88282 1.37672 -0.0641402 66 45 40
0.1234 1.32489 -0.03944 54 28 23
0.11554 1.33048 -0.0584401 54 30 25
0.0676899 1.31851 -0.0482701 56 29 24
0.05621 1.31889 -0.0487398 60 35 30
0.0460401 1.3196 -0.0528902 139 127 124
0.91778 1.36427 -0.0701102 217 211 211
0.90243 1.36371 -0.0644802 198 190 190
0.86509 1.367 -0.0621699 55 32 27
0.11878 1.32219 -0.0669798 57 32 29
0.0627 1.30868 -0.0498298 56 31 25
0.11474 1.30924 -0.0556 54 28 25
0.12115 1.30174 -0.0473198 69 43 39
0.0448599 1.33165 -0.14866 120 96 93
0.0369201 1.33426 -0.15304 114 89 86
0.0987298 1.29477 -0.0612201 43 21 17
0.0347099 1.29787 -0.08964 87 60 54
0.0341899 1.32312 -0.1536 65 35 31
0.11578 1.28698 -0.0575398 55 30 27
0.09231 1.28788 -0.06996 46 24 20
0.0232599 1.33004 -0.17693 201 192 189
0.11052 1.27695 -0.0596599 49 27 22
0.125 1.24842 -0.01831 66 44 40
0.08268 1.26824 -0.0856198 47 28 24
0.01525 1.29496 -0.158 218 210 208
0.01338 1.29391 -0.15625 222 215 213
0.10171 1.25639 -0.0642799 45 24 21
0.0357299 1.26454 -0.11572 76 60 57
0.01103 1.27985 -0.15738 92 66 63
-0.00706005 1.28777 -0.17421 226 215 213
0.12326 1.21813 -0.01837 62 39 35
0.10061 1.24334 -0.0628098 50 28 25
0.08606 1.24641 -0.0725001 48 28 26
0.0706999 1.2455 -0.0717901 47 28 25
0.0479999 1.2345 -0.0626301 75 61 59
0.12522 1.21253 -0.0350799 70 42 38
0.11495 1.22171 -0.0530099 64 35 30
0.0779901 1.23378 -0.06818 50 30 27
0.0779901 1.23378 -0.06818 50 30 28
0.0418 1.22067 -0.0626201 164 156 154
0.03777 1.23124 -0.0726499 230 227 226
0.0145099 1.25718 -0.14892 223 217 217
0.0119801 1.24855 -0.12807 228 224 224
0.0105998 1.26899 -0.16303 106 85 84
0.00879002 1.26788 -0.16116 108 87 85
-0.01001 1.2721 -0.1752 99 66 63
-0.0162702 1.27777 -0.19282 135 99 97
-0.0387301 1.27763 -0.20396 183 166 165
0.1229 1.20126 -0.0177401 55 30 27
0.11913 1.21463 -0.0444998 69 40 35
0.04638 1.21053 -0.0522398 56 36 34
-0.0220799 1.26468 -0.20016 134 112 111
-0.0412002 1.26756 -0.20633 104 69 70
0.10433 1.19737 -0.05486 59 30 26
0.0971799 1.20578 -0.0535902 51 25 22
0.0362 1.19357 -0.0459999 85 68 66
-0.0367 1.25675 -0.20303 159 141 141
0.0285799 1.18083 -0.0417198 179 172 170
1.04614 1.24755 -0.0714001 39 21 24
0.11211 1.17306 -0.0375398 68 37 30
0.07569 1.18679 -0.0625199 48 23 20
0.0283899 1.16898 -0.0437001 196 191 190
-0.0855601 1.24449 -0.24289 83 61 62
1.05204 1.23507 -0.0642599 125 113 115
0.11407 1.16195 -0.0399197 72 41 34
-0.11287 1.24897 -0.26685 235 231 232
0.11464 1.1506 -0.0436801 77 45 37
0.1152 1.14055 -0.0124301 74 44 39
0.11682 1.13825 -0.0217098 79 49 43
0.11682 1.13825 -0.0217098 79 49 43
1.549 1.22421 -0.0521902 116 96 93
1.3196 1.28091 -0.22015 216 210 210
0.10661 1.13785 -0.0516299 83 51 44
0.10919 1.12452 -0.0454401 75 44 35
1.52066 1.20485 -0.0539502 122 99 96
1.50361 1.19792 -0.0498699 116 93 92
1.42395 1.20149 -0.0493101 230 223 219
1.31945 1.24236 -0.17734 209 200 202
0.11304 1.113 -0.0437898 92 60 52
-0.16701 1.20859 -0.30204 63 49 51
0.11792 1.10582 -0.0508698 76 44 36
0.11016 1.09955 -0.0585698 62 31 24
0.12794 1.09265 -0.04891 79 48 40
0.10477 1.08969 -0.0637101 54 26 20
0.07991 1.08736 -0.0634798 63 33 29
-0.20898 1.18729 -0.3249 210 207 207
0.12423 1.08566 -0.0577702 69 39 30
0.11015 1.07831 -0.0623602 71 44 38
0.07233 1.0782 -0.0650701 62 32 29
1.47749 1.19018 -0.12449 207 200 198
-0.22151 1.17023 -0.33293 183 179 180
1.48343 1.16983 -0.11085 184 168 165
1.44498 1.17167 -0.11019 124 98 97
1.41841 1.17312 -0.11535 73 52 52
1.40541 1.17212 -0.11394 69 50 50
0.11205 1.05508 -0.0575799 52 31 25
1.483 1.16038 -0.11605 79 58 55
0.10566 1.0456 -0.0607099 46 26 21
0.0627101 1.04675 -0.0683302 119 99 98
1.41167 1.15512 -0.11658 228 227 226
-0.24959 1.00733 -0.0606698 127 101 101
0.0992498 0.99934 -0.0526899 53 29 27
0.0590899 0.99807 -0.05628 66 40 36
-0.26222 0.98605 -0.0682201 237 236 235
-0.14343 0.95927 -0.0324201 108 73 73
0.09741 0.94162 -0.01584 60 36 32
0.08938 0.95981 -0.0511402 59 33 29
0.0622599 0.95773 -0.0513701 59 32 28
0.10642 0.9285 -0.000540175 68 48 46
0.10574 0.92794 -0.000780024 65 44 42
0.0816901 0.94819 -0.0511998 65 38 33
-0.0648901 0.92753 -0.0240702 137 106 105
0.08336 0.94195 -0.0444502 62 34 28
0.0929999 0.91671 -0.0206799 54 30 26
0.0797799 0.9331 -0.0510301 64 39 33
0.00784993 0.92193 -0.0370802 207 198 195
0.0934699 0.90086 -0.0146302 65 40 37
0.09164 0.91277 -0.0328402 51 27 23
0.0819099 0.91904 -0.0434999 50 25 21
0.0789199 0.90974 -0.0475902 52 28 23
0.09321 0.8817 -0.00120012 68 43 39
0.08987 0.89498 -0.02711 66 40 36
0.05269 0.90261 -0.05695 57 29 26
-0.05513 0.89291 -0.0526299 84 61 57
-0.0717001 0.90153 -0.06855 221 218 217
0.11316 0.8538 0.0306202 237 234 233
0.10005 0.85191 0.0351601 208 202 202
0.0752299 0.89632 -0.0487498 58 31 28
0.0665 0.89717 -0.0542001 61 33 30
0.0157599 0.88618 -0.03481 87 62 55
0.00656986 0.88208 -0.0420398 91 69 64
-0.03196 0.88621 -0.0424899 56 35 32
-0.0439401 0.88013 -0.0500902 90 73 71
-0.0532 0.88786 -0.06393 59 41 38
0.0901599 0.87202 -0.03269 68 41 36
0.07938 0.87699 -0.0438098 55 28 24
-0.03654 0.86989 -0.0489601 227 223 222
-0.04671 0.87091 -0.0549301 218 214 213
-0.0525901 0.88103 -0.0560602 73 56 54
-0.0517101 0.87445 -0.0647101 225 222 221
0.0931899 0.86008 -0.0164298 70 44 39
0.0839999 0.86395 -0.0447101 70 42 36
0.0606298 0.87459 -0.0574898 70 42 39
0.0355499 0.86271 -0.0459298 55 31 27
-0.00307012 0.85057 -0.0294699 104 94 92
0.07512 0.84945 -0.0455102 65 40 34
0.0871398 0.8204 -0.00823014 63 38 31
0.0782499 0.83515 -0.0364999 68 44 36
0.0880599 0.80121 0.00584991 73 45 40
0.0775499 0.809 -0.0250901 67 44 37
0.0116498 0.81547 -0.0377802 226 224 224
0.0990798 0.74627 0.0939098 222 218 217
0.0898299 0.78883 0.00504977 71 42 37
0.0925 0.77739 0.02456 85 53 50
0.0362599 0.8009 -0.0392899 52 29 26
0.01106 0.80075 -0.0336899 228 226 225
0.10319 0.74496 0.0550199 108 85 82
0.0861099 0.78814 -0.03235 65 40 32
0.10685 0.71993 0.0759001 221 218 216
0.0889399 0.76142 -0.02429 77 51 43
0.08184 0.76673 -0.0346102 67 44 36
0.08956 0.70797 0.0439001 73 42 36
0.09182 0.74474 -0.0202202 74 45 36
0.0789299 0.75308 -0.03408 64 40 32
0.0982599 0.67756 0.0811902 217 212 211
0.0350299 0.73397 -0.0284399 58 36 34
0.0940599 0.66818 0.0729099 157 146 146
0.0949299 0.66979 0.0723 154 143 142
0.09517 0.72175 -0.0241899 79 50 44
0.0555899 0.72166 -0.02778 49 28 23
0.0432999 0.72327 -0.0308699 48 27 23
0.0753899 0.71228 -0.0261301 65 43 37
0.05018 0.712 -0.0314001 48 28 23
0.0493999 0.68097 -0.0338101 53 27 24
0.10195 0.68061 -0.0902399 104 83 76
0.10218 0.66012 -0.10154 59 39 32
0.09023 0.64406 -0.0921902 50 28 22
0.09168 0.62883 -0.0945901 61 38 33
0.0806999 0.63221 -0.0931801 62 38 33
0.08621 0.53462 0.0190101 70 45 40
0.0889199 0.59194 -0.10803 44 24 19
0.09761 0.49551 0.0532799 234 230 228
0.06006 0.48489 -0.0262103 67 38 30
-0.0877202 0.42703 0.0451098 69 38 30
0.0329199 0.47356 -0.0381202 65 42 33
0.0526199 0.45703 -0.02639 61 31 24
-0.0901601 0.41504 0.0397602 76 46 38
0.05972 0.44054 -0.01445 63 31 24
0.01805 0.4451 -0.0335803 61 35 26
-0.0896201 0.3982 0.0450402 65 34 27
0.0596499 0.42593 -0.0139002 67 34 27
0.0646899 0.41961 -0.00354 74 39 31
0.0511699 0.43156 -0.0211601 74 43 36
0.07127 0.39501 0.0364299 102 67 56
0.0480099 0.41656 -0.0198102 68 36 30
0.0304499 0.41771 -0.0254802 65 40 31
-0.0592899 0.38053 0.0401202 76 51 40
0.0627499 0.40281 -0.0019302 67 30 21
0.0562 0.40992 -0.0137 67 32 24
0.0181899 0.42125 -0.0338602 63 40 28
-0.0675499 0.36655 0.0427299 64 39 26
0.0967 0.37052 0.0369001 197 191 191
0.0612299 0.38316 0.00642017 79 40 31
0.0553999 0.39133 -0.00598999 77 41 33
0.04742 0.39559 -0.0131001 68 34 26
0.0306199 0.39465 -0.0205202 60 34 24
0.01723 0.4004 -0.0268302 67 44 31
-0.0279501 0.37861 0.00924018 96 70 60
-0.10048 0.35067 0.0306201 199 169 141
-0.10966 0.35196 0.0290599 203 169 142
0.0622799 0.36873 0.00449994 83 44 34
0.05548 0.37655 -0.00605008 77 40 31
0.0458 0.37816 -0.00827023 67 33 25
0.0157299 0.38925 -0.03516 65 40 27
0.0559299 0.36452 -0.01157 74 37 28
0.0896299 0.30127 0.0847202 188 193 199
0.0752199 0.32509 0.0470901 134 116 108
0.0775099 0.30673 0.0665999 196 194 192
0.0690799 0.31341 0.0458398 130 106 99
0.0469799 0.35504 -0.0191102 75 38 30
0.02654 0.34639 -0.0176301 66 35 25
0.0713699 0.29761 0.06179 197 189 188
0.0755 0.29346 0.0648899 208 206 209
0.01986 0.33408 -0.0177703 76 47 35
0.0120299 0.3378 -0.0223698 75 50 36
0.04456 0.31526 0.00733998 74 37 27
0.00525999 0.29432 -0.0194602 65 44 32
0.09393 0.27724 0.0100398 213 205 211
0.0702 0.28164 0.00613978 139 116 116
0.11728 0.25735 0.0349398 158 144 139
0.0244899 0.27847 -0.0132003 73 45 32
0.00382996 0.26538 -0.0199098 69 51 34
0.09779 0.25624 -0.0227003 140 128 116
0.0488501 0.24357 -0.00701998 61 36 29
0.04321 0.25695 -0.01724 71 47 37
0.0423501 0.25623 -0.01479 71 46 36
0.04338 0.25665 -0.0132999 71 45 35
0.07284 0.24821 -0.0226402 130 114 102
-0.00886011 0.2351 -0.0103302 71 58 36
0.05039 0.2526 -0.05618 74 60 44
0.0259499 3.64239 -0.02162 227 224 224
0.0438399 3.63463 0.00161012 44 31 30
0.0460799 3.60197 0.0517205 186 181 178
0.0438499 3.55762 0.0344604 89 51 45
0.04583 3.5522 0.0429004 117 83 77
0.0406499 3.54759 0.0356901 90 49 42
0.0460699 3.5363 0.0526603 177 160 155
0.0273099 3.51055 0.0461601 103 57 51
0.02882 3.49578 0.02329 89 49 43
0.01948 3.44399 0.0278404 91 48 38
0.0560501 3.43083 0.0554603 184 166 159
0.0237598 3.38801 0.0254601 102 60 48
0.029 3.38272 0.0315602 105 53 42
0.07306 3.30843 0.0541203 223 214 209
0.0415299 3.30812 0.0207103 72 38 29
0.0432599 3.28227 0.0260103 99 47 32
0.0460401 3.25444 0.0232404 102 49 36
0.0545099 3.20312 0.0238703 117 64 51
0.05913 3.19303 0.02262 116 60 47
0.0577199 3.18793 0.01525 113 62 47
0.0641301 3.17892 0.0150903 118 64 49
0.0711999 3.16799 0.0113404 125 70 54
0.0671899 3.15001 0.0107 114 63 51
0.07178 3.13673 0.00784997 114 61 49
0.0634699 3.13535 -0.00131961 194 183 179
0.0696199 3.13103 0.0035303 123 83 73
0.0748699 3.12092 0.00441006 107 56 46
0.06916 3.10557 -0.00681993 214 205 202
0.0852499 3.09349 -0.00190994 102 48 35
0.07272 3.101 0.00118998 116 78 72
0.08354 3.08123 0.00217036 124 67 53
0.11029 3.06813 0.00358036 153 86 65
0.0729299 3.06159 -0.00351974 153 123 113
0.0748301 3.03175 -0.0372698 49 28 23
0.0594499 3.02486 -0.0309097 136 130 126
